# .PCD v0.7 - Point Cloud Data file format
VERSION 0.7
FIELDS x y z rgb
SIZE 4 4 4 4
TYPE F F F U
COUNT 1 1 1 1
WIDTH 1059
HEIGHT 1
VIEWPOINT 0 0 0 1 0 0 0
POINTS 1059
DATA ascii
-0.041625001 0.16488275 0.0043756524 4290647119
-0.046250001 0.16600201 0.0041037202 4290647119
-0.044999998 0.1660035 0.0043062349 4290647119
-0.043000001 0.16600375 0.0043399874 4290647119
-0.041749999 0.16600201 0.0041037202 4290647119
-0.072499998 0.039292231 0.0075383405 4290647119
-0.072499998 0.040205799 0.00694734 4290647119
-0.071357146 0.041110285 0.0076361722 4290647119
-0.070499994 0.042679131 0.0073294137 4290647119
-0.069500007 0.043436732 0.0076045562 4290647119
-0.068583332 0.044833262 0.0069507663 4290647119
-0.067214288 0.045251343 0.0073131374 4290647119
-0.066500001 0.046014201 0.0065714801 4290647119
-0.065035716 0.046353765 0.0068432861 4290647119
-0.062899999 0.046947241 0.0071550519 4290647119
-0.061349999 0.047378302 0.0070793419 4290647119
-0.058916662 0.048687313 0.0065308218 4290647119
-0.057875 0.049377799 0.0074593248 4290647119
-0.057399999 0.0512066 0.0064135017 4290647119
-0.056849997 0.053061582 0.0064068525 4290647119
-0.056374997 0.055053897 0.00712264 4290647119
-0.056499999 0.056106601 0.0069286702 4290647119
-0.082500003 0.074673504 0.0071175001 4290647119
-0.048625 0.14352399 0.0075461604 4290647119
-0.047374997 0.14497368 0.0069308854 4290647119
-0.046799999 0.1463816 0.0074160001 4290647119
-0.045583334 0.147048 0.0067381482 4290647119
-0.044924997 0.14894611 0.0072861826 4290647119
-0.043624997 0.14936225 0.0063335774 4290647119
-0.044600002 0.15108481 0.0077408096 4290647119
-0.04322727 0.1512741 0.0067411792 4290647119
-0.041999999 0.151925 0.0060133999 4290647119
-0.04425 0.152702 0.0079167001 4290647119
-0.043125 0.15305187 0.0071546701 4290647119
-0.041749999 0.15315333 0.0062236362 4290647119
-0.044906251 0.15516824 0.0074696559 4290647119
-0.043083329 0.15488617 0.0071420479 4290647119
-0.04115909 0.15493727 0.0064024776 4290647119
-0.058708336 0.15720282 0.0067692525 4290647119
-0.057500001 0.15782534 0.0073609035 4290647119
-0.045166668 0.15708533 0.0070338245 4290647119
-0.043249998 0.1563355 0.0062307375 4290647119
-0.041249998 0.1563375 0.0063259397 4290647119
-0.039999999 0.156331 0.0060085999 4290647119
-0.056900002 0.15870841 0.0066909641 4290647119
-0.055349998 0.1591658 0.0072233281 4290647119
-0.053750001 0.159326 0.007845005 4290647119
-0.046583336 0.15907766 0.0078665661 4290647119
-0.045125004 0.15894012 0.0071158065 4290647119
-0.044 0.159298 0.0062584602 4290647119
-0.054749999 0.16004699 0.0063841804 4290647119
-0.053027783 0.16055033 0.0067218309 4290647119
-0.05108333 0.16080593 0.007123346 4290647119
-0.049068179 0.16087793 0.0073866905 4290647119
-0.047083333 0.16080742 0.0072291102 4290647119
-0.045083333 0.16079859 0.0066896956 4290647119
-0.043833334 0.16079001 0.0061714333 4290647119
-0.049249999 0.16228575 0.0063171 4290647119
-0.047149997 0.1624362 0.0064310795 4290647119
-0.045499999 0.162285 0.0062536434 4290647119
-0.071083337 0.037304301 0.0094814831 4290647119
-0.072250001 0.038145099 0.0082138497 4290647119
-0.071159095 0.039010052 0.0088829482 4290647119
-0.069875002 0.039389402 0.0096727293 4290647119
-0.070625007 0.040722001 0.0084373057 4290647119
-0.069325 0.04123478 0.0091792392 4290647119
-0.068000004 0.041959699 0.0098641403 4290647119
-0.068666667 0.043050736 0.0086182933 4290647119
-0.067562498 0.0432037 0.0095478576 4290647119
-0.066916667 0.044289514 0.0088513652 4290647119
-0.065124996 0.045159087 0.0090419501 4290647119
-0.063500002 0.045566797 0.0094856955 4290647119
-0.063249998 0.046213202 0.0086307023 4290647119
-0.061124999 0.046640147 0.0092750667 4290647119
-0.059250001 0.047398385 0.00903414 4290647119
-0.057750002 0.047747903 0.0094234496 4290647119
-0.058249999 0.0483629 0.0082202395 4290647119
-0.057031248 0.04924475 0.0089323213 4290647119
-0.056599997 0.051121943 0.0085687963 4290647119
-0.055700004 0.051204719 0.0094558159 4290647119
-0.056249999 0.052692398 0.0085889501 4290647119
-0.055500001 0.052980717 0.0091374209 4290647119
-0.056249999 0.054094698 0.0083306804 4290647119
-0.05540625 0.054789498 0.0091051273 4290647119
-0.055500001 0.056271601 0.0087462263 4290647119
0.045874998 0.085190147 0.0092475498 4290647119
0.046250001 0.084133297 0.0095033804 4290647119
0.045874998 0.087408051 0.0096991798 4290647119
0.04575 0.088457301 0.0091295699 4290647119
0.044375002 0.096797496 0.0086445007 4290647119
-0.048999999 0.14391699 0.0084344894 4290647119
-0.048875 0.14502834 0.0088564334 4290647119
-0.048625 0.14651051 0.0094472179 4290647119
-0.047428574 0.14717071 0.0087028388 4290647119
-0.046999995 0.14906563 0.0091095632 4290647119
-0.045874998 0.14941001 0.0082378052 4290647119
-0.046875 0.1509055 0.0094421245 4290647119
-0.045571428 0.15135372 0.0084804362 4290647119
-0.046843749 0.15283075 0.0095509682 4290647119
-0.045250002 0.15313542 0.0085509438 4290647119
-0.057750002 0.155662 0.00918274 4290647119
-0.048500001 0.15543033 0.0098176859 4290647119
-0.047083329 0.15492932 0.0091941655 4290647119
-0.0454375 0.1543605 0.0082956599 4290647119
-0.057125002 0.15693888 0.0089273984 4290647119
-0.055124998 0.15749501 0.0092599606 4290647119
-0.053350002 0.1577182 0.0094596166 4290647119
-0.050999999 0.15762334 0.0096035814 4290647119
-0.049090907 0.15719783 0.0094117532 4290647119
-0.047166664 0.1571181 0.0087262178 4290647119
-0.054749999 0.15858766 0.0082481634 4290647119
-0.052916665 0.15884033 0.0085016107 4290647119
-0.051125001 0.15896775 0.0086547649 4290647119
-0.049125001 0.15896662 0.0086071687 4290647119
-0.047450002 0.15888639 0.0082899835 4290647119
-0.049249999 0.16007499 0.0080341697 4290647119
-0.070374995 0.037262149 0.01024235 4290647119
-0.069250003 0.03742196 0.011275142 4290647119
-0.070249997 0.038341898 0.010116 4290647119
-0.068925001 0.039059062 0.01071233 4290647119
-0.067874998 0.039525852 0.01100415 4290647119
-0.068374999 0.040911451 0.01030735 4290647119
-0.067450002 0.041026641 0.010725761 4290647119
-0.066821434 0.04254546 0.010516329 4290647119
-0.065349996 0.0434024 0.01118302 4290647119
-0.063000001 0.043589 0.011597134 4290647119
-0.064999998 0.044211674 0.0105306 4290647119
-0.063000001 0.044833761 0.0109301 4290647119
-0.061281249 0.045267463 0.011085476 4290647119
-0.059500001 0.045714699 0.01100645 4290647119
-0.0605 0.0463816 0.0103731 4290647119
-0.059050001 0.04655176 0.010626599 4290647119
-0.057050001 0.04704364 0.011196999 4290647119
-0.05545 0.047532521 0.01174204 4290647119
-0.056499999 0.048561051 0.0103107 4290647119
-0.055312503 0.049175736 0.011054938 4290647119
-0.05467857 0.050658859 0.010804728 4290647119
-0.053750001 0.050847299 0.011732126 4290647119
-0.0546 0.052709363 0.01031316 4290647119
-0.053571429 0.053046893 0.011322786 4290647119
-0.054437496 0.055168197 0.010324575 4290647119
-0.0535 0.055087458 0.011389201 4290647119
-0.054499999 0.056405898 0.0102256 4290647119
0.046374999 0.079655007 0.01142605 4290647119
0.046250001 0.081343897 0.0102758 4290647119
0.046250001 0.082768299 0.0102714 4290647119
0.046 0.086340502 0.0100143 4290647119
-0.041000001 0.12866201 0.011881 4290647119
-0.049299996 0.14152761 0.011763901 4290647119
-0.049562499 0.14309175 0.011482675 4290647119
-0.050250001 0.145483 0.0119876 4290647119
-0.049874999 0.145092 0.0110994 4290647119
-0.049437501 0.14709926 0.010922424 4290647119
-0.049083337 0.14911474 0.011052276 4290647119
-0.048 0.14909001 0.010079 4290647119
-0.050250001 0.151326 0.0117267 4290647119
-0.049124997 0.15094587 0.011124138 4290647119
-0.047875002 0.1509255 0.010267301 4290647119
-0.050821427 0.1529953 0.011634001 4290647119
-0.049166668 0.15276925 0.010878659 4290647119
-0.047812499 0.15257025 0.010170124 4290647119
-0.056687497 0.155515 0.010960001 4290647119
-0.055199999 0.1555634 0.01154384 4290647119
-0.052906252 0.15525049 0.011436351 4290647119
-0.051083326 0.15496551 0.010928934 4290647119
-0.049277775 0.1547901 0.010326188 4290647119
-0.056499999 0.156414 0.0101973 4290647119
-0.05525 0.15642099 0.010546401 4290647119
-0.05303571 0.15673229 0.0104146 4290647119
-0.051333338 0.15666001 0.010281684 4290647119
-0.050000001 0.15641201 0.0100704 4290647119
-0.06825 0.0357363 0.0130322 4290647119
-0.068374999 0.036873151 0.0134763 4290647119
-0.068000004 0.037256449 0.01366665 4290647119
-0.067200005 0.039142482 0.013641499 4290647119
-0.06666667 0.040592734 0.013138783 4290647119
-0.065875001 0.041213252 0.0132868 4290647119
-0.065124996 0.04257356 0.012357383 4290647119
-0.064000003 0.043630902 0.0120196 4290647119
-0.055 0.047995701 0.0120209 4290647119
-0.054375 0.04838955 0.01233775 4290647119
-0.053749997 0.049244031 0.0124013 4290647119
-0.053062499 0.051060673 0.012111725 4290647119
-0.052874997 0.052653 0.0120121 4290647119
-0.082000002 0.073772803 0.0134773 4290647119
-0.082249999 0.074515298 0.0138567 4290647119
-0.037749998 0.127994 0.0134059 4290647119
-0.035500001 0.127285 0.0139148 4290647119
-0.04425 0.12946001 0.0135311 4290647119
-0.042900003 0.12930439 0.013302681 4290647119
-0.041437499 0.12888075 0.012769775 4290647119
-0.038874999 0.128351 0.01321495 4290647119
-0.044500001 0.130165 0.0128952 4290647119
-0.043749999 0.13016 0.0127682 4290647119
-0.048 0.13750599 0.0139021 4290647119
-0.048687499 0.1391245 0.013169926 4290647119
-0.049416665 0.14062066 0.012374467 4290647119
-0.050500002 0.14333101 0.0133869 4290647119
-0.050000001 0.143297 0.0122442 4290647119
-0.050650001 0.1446346 0.0130044 4290647119
-0.050666664 0.14697066 0.012938067 4290647119
-0.05067857 0.149271 0.013089372 4290647119
-0.051125001 0.15099017 0.012975417 4290647119
-0.05297222 0.1529811 0.013064655 4290647119
-0.051649999 0.15251282 0.01246154 4290647119
-0.054874998 0.154634 0.012547818 4290647119
-0.053437501 0.15444699 0.01235765 4290647119
-0.067749999 0.035870701 0.0143007 4290647119
-0.067374997 0.036963075 0.014332451 4290647119
-0.067083329 0.038295168 0.014343132 4290647119
0.060624998 0.06686075 0.0158135 4290647119
0.059571434 0.069090702 0.015776487 4290647119
0.057750002 0.0718095 0.0155159 4290647119
0.058916669 0.070867613 0.015581683 4290647119
0.04775 0.073700704 0.015469034 4290647119
0.048500001 0.073256895 0.01583025 4290647119
0.056499999 0.072498798 0.0152601 4290647119
0.046750002 0.074682899 0.0158905 4290647119
-0.086750001 0.081726097 0.0151105 4290647119
0.045000002 0.091059633 0.014904234 4290647119
0.044750001 0.093216851 0.0146764 4290647119
-0.089500003 0.095474198 0.015890401 4290647119
0.044 0.095456697 0.015636001 4290647119
0.04425 0.094706103 0.0152526 4290647119
0.043666665 0.096885107 0.015342799 4290647119
0.043249998 0.09857247 0.0153046 4290647119
0.041874997 0.101588 0.0152697 4290647119
0.042437501 0.10104676 0.015300149 4290647119
0.041625001 0.103019 0.014987225 4290647119
-0.087624997 0.1051985 0.01508805 4290647119
0.041000001 0.1041 0.0148946 4290647119
-0.087125003 0.1066435 0.0150281 4290647119
-0.028999999 0.125874 0.0150597 4290647119
-0.027250001 0.12587924 0.015186699 4290647119
-0.026000001 0.12590601 0.0158218 4290647119
-0.035 0.127322 0.0148039 4290647119
-0.032749999 0.126633 0.0157573 4290647119
-0.024250001 0.126608 0.0151858 4290647119
-0.02375 0.126625 0.0155668 4290647119
-0.020500001 0.12734801 0.0154389 4290647119
-0.042874999 0.12842275 0.0149612 4290647119
-0.041000001 0.12807249 0.0153109 4290647119
-0.039250001 0.12805499 0.014887567 4290647119
-0.046999998 0.13465901 0.0159375 4290647119
-0.048375003 0.1371865 0.0152358 4290647119
-0.04775 0.136802 0.0146649 4290647119
-0.048874997 0.1386285 0.01472605 4290647119
-0.050250001 0.14265101 0.0150384 4290647119
-0.051500004 0.145316 0.0146964 4290647119
-0.051416665 0.14701134 0.014440333 4290647119
-0.051500004 0.14919966 0.014395234 4290647119
-0.052250002 0.15138599 0.0142656 4290647119
-0.052000001 0.150665 0.0146473 4290647119
0.05875 0.0535479 0.017841499 4290647119
-0.059250001 0.057794899 0.0177058 4290647119
-0.05675 0.057783399 0.017579 4290647119
0.059749998 0.057783399 0.017579 4290647119
-0.064499997 0.059856098 0.016940201 4290647119
-0.059999999 0.058504701 0.017704301 4290647119
0.059999999 0.059191652 0.01744915 4290647119
0.060374998 0.0595125 0.017067801 4290647119
0.059999999 0.061366301 0.017952099 4290647119
0.060650002 0.061134238 0.01693736 4290647119
-0.072250001 0.063495398 0.0179477 4290647119
0.060625002 0.062724248 0.017251151 4290647119
-0.073583335 0.064899966 0.017775534 4290647119
0.060749996 0.064852141 0.017225431 4290647119
-0.075375006 0.067251399 0.016225349 4290647119
0.059874997 0.06736055 0.017495152 4290647119
0.0605 0.066945702 0.0167975 4290647119
-0.078749999 0.069769606 0.01660075 4290647119
0.058499999 0.069882601 0.017934499 4290647119
0.060374998 0.068661101 0.0160951 4290647119
-0.080624998 0.071523547 0.016342651 4290647119
-0.079875 0.070861399 0.016915999 4290647119
0.057374999 0.071568877 0.016882624 4290647119
0.058249999 0.070495799 0.016789701 4290647119
-0.081124999 0.073002145 0.017038301 4290647119
0.04714286 0.073025756 0.016711414 4290647119
0.0495 0.073145233 0.017334534 4290647119
0.050999999 0.073372997 0.017228175 4290647119
0.052899998 0.073518239 0.017265981 4290647119
0.054833334 0.073166363 0.017588735 4290647119
0.056000002 0.072647199 0.0170391 4290647119
-0.081416667 0.074321404 0.017247299 4290647119
0.046500001 0.074088201 0.017290199 4290647119
0.050000001 0.074004099 0.0162734 4290647119
0.051750001 0.074019849 0.016464051 4290647119
0.052999999 0.074014597 0.016400499 4290647119
-0.084749997 0.0776686 0.017664 4290647119
-0.083999999 0.076969199 0.0177927 4290647119
-0.085875005 0.079407305 0.017215151 4290647119
-0.086374998 0.080806948 0.0169576 4290647119
-0.089562505 0.097169325 0.01688025 4290647119
0.043249998 0.097663201 0.016150201 4290647119
-0.089499995 0.099169299 0.017044025 4290647119
0.042625003 0.099559948 0.01749 4290647119
-0.089125 0.1010145 0.017620601 4290647119
-0.088499993 0.10278633 0.017052667 4290647119
0.041125 0.1024515 0.0174968 4290647119
-0.087499999 0.1049705 0.017312098 4290647119
0.0405 0.104271 0.0176918 4290647119
-0.086750001 0.106455 0.0179512 4290647119
-0.086999997 0.110061 0.0178326 4290647119
-0.092 0.114392 0.0177157 4290647119
0.02675 0.122343 0.017604699 4290647119
-0.03125 0.12596375 0.017155349 4290647119
-0.028999999 0.12548834 0.017388867 4290647119
-0.0275 0.125266 0.017854899 4290647119
-0.024999999 0.125957 0.017007133 4290647119
-0.024 0.125994 0.017853901 4290647119
-0.0425 0.127428 0.017343899 4290647119
-0.041249998 0.12742275 0.017216899 4290647119
-0.039249998 0.12740324 0.01674065 4290647119
-0.037250001 0.12740426 0.016772401 4290647119
-0.035999998 0.127386 0.016327901 4290647119
-0.03325 0.126684 0.016963851 4290647119
-0.02275 0.12667467 0.016752234 4290647119
-0.02 0.127433 0.0174709 4290647119
-0.043624997 0.1285255 0.017469499 4290647119
-0.017750001 0.12818301 0.017978 4290647119
-0.045499999 0.13180199 0.0174652 4290647119
0.001 0.13136286 0.016867029 4290647119
0.002875 0.13141349 0.016830686 4290647119
0.0044999998 0.1314235 0.017084651 4290647119
-0.046625003 0.1336205 0.017399251 4290647119
-0.048874997 0.1372325 0.0165691 4290647119
-0.048 0.136144 0.0166975 4290647119
-0.0495 0.139054 0.016566699 4290647119
-0.050375 0.14162201 0.01713475 4290647119
-0.050000001 0.140531 0.017199701 4290647119
-0.051124997 0.14307925 0.017164575 4290647119
-0.052250002 0.144912 0.0175748 4290647119
-0.051666666 0.14440167 0.016728999 4290647119
-0.051875003 0.14672649 0.017382 4290647119
-0.051875003 0.14891949 0.017696399 4290647119
-0.052499998 0.15073101 0.0173555 4290647119
0.046500001 0.042952102 0.019752299 4290647119
0.051375002 0.045381747 0.018737301 4290647119
0.053125001 0.046907999 0.019560501 4290647119
0.054375 0.0475576 0.018799901 4290647119
0.055166665 0.048696768 0.019369701 4290647119
0.056249999 0.049407601 0.0192427 4290647119
0.057000004 0.050824948 0.019082701 4290647119
0.057875 0.05264825 0.0196179 4290647119
0.058249999 0.053641699 0.0188554 4290647119
0.05875 0.05515945 0.019930251 4290647119
-0.056249999 0.057852201 0.0183399 4290647119
-0.055500001 0.057972699 0.0196715 4290647119
-0.054000001 0.057165701 0.0185949 4290647119
0.059375003 0.056885898 0.019419849 4278190335
-0.062249999 0.059328299 0.018971199 4290647119
-0.061749998 0.059408002 0.0198591 4290647119
-0.059 0.058611333 0.018888067 4290647119
0.059625 0.059053499 0.0198598 4278190335
-0.067500003 0.061478902 0.0192209 4290647119
-0.065750003 0.0608036 0.0196028 4290647119
-0.064000003 0.060117099 0.0198578 4290647119
-0.071050003 0.063311823 0.019090481 4290647119
-0.069375001 0.062514804 0.01890165 4290647119
0.059999999 0.0628528 0.0187106 4290647119
0.060249999 0.063528799 0.0183284 4290647119
-0.072875001 0.065137953 0.019150468 4290647119
-0.071999997 0.064304903 0.0190886 4290647119
0.059916664 0.065047435 0.019468 4290647119
0.060374998 0.064593099 0.018326249 4290647119
-0.074375004 0.066716351 0.018258501 4290647119
-0.073624998 0.066839576 0.0196869 4290647119
0.059499998 0.067145795 0.019125467 4290647119
0.057999998 0.0699687 0.018950701 4290647119
0.058666665 0.06903366 0.019079501 4290647119
-0.079166673 0.070907332 0.018864168 4290647119
-0.077749997 0.070763797 0.0199656 4290647119
0.046500001 0.0714515 0.0197102 4290647119
0.056964286 0.070905261 0.019239286 4290647119
-0.080437504 0.072949052 0.018531876 4290647119
-0.079449996 0.072427318 0.019505059 4290647119
0.045874998 0.072515205 0.01970825 4290647119
0.046850003 0.072367862 0.01879352 4290647119
0.048900001 0.072531 0.019047379 4290647119
0.05125 0.072859101 0.01958055 4290647119
0.052999999 0.072844975 0.019411134 4290647119
0.054875001 0.072449796 0.018924667 4290647119
0.056249999 0.072043598 0.018311299 4290647119
0.046 0.074975997 0.0194495 4290647119
0.046250001 0.074892297 0.0184326 4290647119
-0.084250003 0.077720098 0.018299799 4290647119
-0.083499998 0.076989897 0.018046901 4290647119
0.046374999 0.076749146 0.0194462 4290647119
-0.084999993 0.079023957 0.01862788 4290647119
-0.08625 0.081987597 0.0184184 4290647119
-0.085875005 0.080943555 0.018674999 4290647119
-0.086499996 0.083173461 0.018458501 4290647119
-0.086000003 0.082787298 0.0195622 4290647119
0.04575 0.082108296 0.019945201 4290647119
-0.086499996 0.084106296 0.018286901 4290647119
0.045499999 0.0842354 0.019941401 4290647119
-0.088624999 0.087336406 0.018351849 4290647119
-0.089250006 0.089194469 0.019056002 4290647119
-0.089625001 0.091022551 0.0193782 4290647119
0.044750001 0.090703599 0.019950001 4290647119
-0.089749999 0.092110001 0.0194443 4290647119
0.042374998 0.098987803 0.0197777 4290647119
-0.088750005 0.10076033 0.019294268 4290647119
0.041749999 0.100706 0.018446367 4290647119
-0.088249996 0.102199 0.0192127 4290647119
-0.087875001 0.10327 0.01902445 4290647119
-0.086999997 0.10505575 0.018710677 4290647119
0.039625 0.105436 0.019029401 4290647119
-0.086437501 0.10738975 0.0184936 4290647119
-0.086000003 0.107207 0.018461401 4290647119
0.039000001 0.10722234 0.018715633 4290647119
-0.086624995 0.1090225 0.018624451 4290647119
-0.085875005 0.109039 0.018910501 4290647119
0.037874997 0.1090465 0.019037601 4290647119
-0.086499996 0.110097 0.018468101 4290647119
0.035999998 0.111619 0.0198694 4290647119
0.036937498 0.11070076 0.01958145 4290647119
0.035750002 0.112299 0.0191085 4290647119
-0.092750005 0.11516267 0.018649166 4290647119
-0.093374997 0.11702099 0.019690949 4290647119
-0.093874998 0.118445 0.01931305 4290647119
-0.030999999 0.12531826 0.019061426 4290647119
-0.029333333 0.12483249 0.019040933 4290647119
-0.027000001 0.12482684 0.0189139 4290647119
-0.025250001 0.12507848 0.019125285 4290647119
-0.02375 0.125349 0.01976 4290647119
-0.044500001 0.12680075 0.019726248 4290647119
-0.043300003 0.12677661 0.019148398 4290647119
-0.041000001 0.12675925 0.018741976 4290647119
-0.038999997 0.126774 0.01909125 4290647119
-0.037 0.12676725 0.018932477 4290647119
-0.035 0.12645844 0.018996373 4290647119
-0.03325 0.12604399 0.019028701 4290647119
-0.023 0.12604067 0.018954599 4290647119
-0.021199999 0.12662761 0.019072359 4290647119
-0.019000001 0.12749733 0.018995 4290647119
0.0175 0.12752567 0.019672332 4290647119
0.018750001 0.12751301 0.019376 4290647119
-0.044375002 0.12861699 0.019692 4290647119
-0.043749999 0.12819301 0.018231999 4290647119
-0.01825 0.12819301 0.018231999 4290647119
-0.01675 0.12823868 0.019332668 4290647119
-0.0135 0.12895499 0.019077666 4290647119
-0.01075 0.129674 0.018865 4290647119
0.01375 0.12971 0.019754 4290647119
0.015249999 0.128949 0.0189295 4290647119
0.016799999 0.12835459 0.0186128 4290647119
-0.045625001 0.13150701 0.01924355 4290647119
0.00575 0.13116799 0.019879 4290647119
0.0070000002 0.13113475 0.0190218 4290647119
0.00875 0.13112901 0.018863099 4290647119
0.0115 0.13041651 0.019244999 4290647119
-0.046250001 0.13257401 0.0186071 4290647119
-0.090875 0.1344225 0.019430101 4290647119
-0.048500001 0.135518 0.01955555 4290647119
-0.047625002 0.13475725 0.018635951 4290647119
-0.090999998 0.1369845 0.0199345 4290647119
-0.049062502 0.13677774 0.01920465 4290647119
-0.091124997 0.13953049 0.019994501 4290647119
-0.050500002 0.13963099 0.019359468 4290647119
-0.049874999 0.1387555 0.018535301 4290647119
-0.050875001 0.14095101 0.018945049 4290647119
-0.092 0.142799 0.01992655 4290647119
-0.052250002 0.14276201 0.0187204 4290647119
-0.051649999 0.142469 0.018644581 4290647119
-0.052375 0.14678699 0.019603651 4290647119
-0.052000001 0.147844 0.018332699 4290647119
-0.052375 0.1489695 0.01966415 4290647119
-0.090750001 0.15006199 0.0197262 4290647119
-0.052874997 0.150425 0.019725701 4290647119
-0.088500001 0.15222999 0.019215399 4290647119
0.041125 0.040617898 0.021655399 4290647119
0.046999998 0.043028399 0.020512899 4290647119
0.048250001 0.043801099 0.0210196 4290647119
0.049249999 0.044516649 0.020955801 4290647119
0.050916668 0.045717731 0.020934068 4290647119
0.051750001 0.046737701 0.021524901 4290647119
0.052583333 0.047140833 0.020722033 4290647119
0.0535 0.048125949 0.020953901 4290647119
0.054700006 0.049137704 0.02096598 4290647119
0.05525 0.050357148 0.0216495 4290647119
0.0564375 0.05116545 0.02082455 4290647119
0.057312503 0.052984498 0.021328475 4290647119
0.057999998 0.054596402 0.021516001 4290647119
0.058499999 0.055235051 0.02075425 4290647119
-0.0535 0.057349902 0.020623799 4290647119
0.058750004 0.05669887 0.021259034 4278190335
-0.060749996 0.059464965 0.020493366 4290647119
-0.059500001 0.059573151 0.02169835 4290647119
-0.057250001 0.058804676 0.021033624 4290647119
-0.055100001 0.058536619 0.02120534 4290647119
-0.0535 0.058139 0.02151035 4290647119
0.0590625 0.058650352 0.021287575 4278190335
-0.066750005 0.061591551 0.02048965 4290647119
-0.065062493 0.061124802 0.021220099 4290647119
-0.063187495 0.060396299 0.020999275 4290647119
-0.061750002 0.060281601 0.021697249 4290647119
0.059500001 0.060899653 0.020681201 4290647119
-0.070249997 0.063740402 0.020739799 4290647119
-0.068999998 0.063044965 0.020893339 4290647119
-0.067499995 0.062345251 0.020996001 4290647119
0.059416667 0.063054003 0.02099485 4290647119
-0.072499998 0.065877803 0.0208632 4290647119
-0.071333326 0.064953014 0.021097517 4290647119
0.059250005 0.065182343 0.021016698 4290647119
-0.072750002 0.066630401 0.0213698 4290647119
0.058850002 0.067151338 0.020835601 4290647119
0.057499994 0.068985112 0.021281349 4290647119
0.058375001 0.068342105 0.020668499 4290647119
-0.07858333 0.071265064 0.020303501 4290647119
-0.078000002 0.071494199 0.0202184 4290647119
0.045500003 0.071281277 0.02105738 4290647119
0.047214288 0.071161076 0.021072114 4290647119
0.04905 0.071463637 0.021539919 4290647119
0.05125 0.071630426 0.021838276 4290647119
0.052999999 0.071618833 0.021700634 4290647119
0.054964285 0.071271434 0.021180812 4290647119
0.0564375 0.070318125 0.02098275 4290647119
0.04535 0.07314714 0.021333899 4290647119
0.0495 0.072229803 0.0205348 4290647119
0.050999999 0.072253726 0.020820726 4290647119
0.053000003 0.072237745 0.020630099 4290647119
0.054249998 0.072203197 0.0202171 4290647119
0.045583334 0.075105228 0.021017199 4290647119
-0.083374999 0.077633902 0.021606449 4290647119
0.04575 0.077243403 0.021161973 4290647119
0.046250001 0.077864401 0.02008 4290647119
-0.084250003 0.079394899 0.0214765 4290647119
-0.083249994 0.078477584 0.021817034 4290647119
0.045874998 0.078984253 0.0207776 4290647119
0.046250001 0.0793029 0.0203318 4290647119
-0.085000001 0.080774769 0.0210078 4290647119
0.0456875 0.080594197 0.020965675 4290647119
-0.085450001 0.082763746 0.021063861 4290647119
0.045374997 0.083256699 0.0210249 4290647119
-0.087249994 0.085717455 0.020766199 4290647119
-0.088249996 0.087904297 0.021089099 4290647119
-0.087625004 0.086840227 0.021309499 4290647119
-0.088624999 0.088942699 0.02051875 4290647119
0.044875003 0.08896625 0.020836849 4290647119
-0.089000002 0.090782449 0.02103165 4290647119
0.044500001 0.090792149 0.02115895 4290647119
-0.08935 0.093079194 0.020896699 4290647119
0.04425 0.093661197 0.020974301 4290647119
-0.089100003 0.094988704 0.021409642 4290647119
0.043749999 0.095085062 0.020722967 4290647119
-0.088937499 0.097095899 0.021140698 4290647119
0.043000001 0.097274005 0.021109333 4290647119
-0.088624999 0.099063128 0.0209224 4290647119
-0.088375002 0.1004965 0.02079835 4290647119
-0.088 0.101582 0.0208643 4290647119
0.041000001 0.101647 0.021881601 4290647119
-0.087249994 0.10316201 0.02076602 4290647119
0.0405 0.10303468 0.021036968 4290647119
-0.086583339 0.10469333 0.020659165 4290647119
-0.085650004 0.1054996 0.021279562 4290647119
0.039999999 0.104435 0.020362001 4290647119
-0.085374996 0.10700776 0.021193851 4290647119
0.0385 0.107372 0.0212582 4290647119
-0.085249998 0.10856167 0.021070117 4290647119
0.037250001 0.109526 0.021135701 4290647119
0.038249999 0.108078 0.0210055 4290647119
0.036249999 0.11101 0.021901401 4290647119
0.035 0.113151 0.0215248 4290647119
0.027000001 0.121767 0.020908101 4290647119
-0.032249998 0.123986 0.0217942 4290647119
-0.030999999 0.12397 0.021444926 4290647119
-0.029125001 0.12360013 0.021286637 4290647119
-0.027124999 0.12359013 0.021064375 4290647119
-0.025250001 0.123963 0.021286132 4290647119
0.024625 0.1236085 0.02147715 4290647119
0.026249999 0.122488 0.0207801 4290647119
-0.094750002 0.125404 0.0210301 4290647119
-0.04425 0.12542 0.0214111 4290647119
-0.042999998 0.12540925 0.021157099 4290647119
-0.041000001 0.12543274 0.021696851 4290647119
-0.036249999 0.12543701 0.021792101 4290647119
-0.035 0.12540224 0.020998349 4290647119
-0.033124998 0.12503187 0.020824173 4290647119
-0.03125 0.12466101 0.02065005 4290647119
-0.02475 0.124644 0.020269001 4290647119
-0.023035714 0.12498571 0.020958085 4290647119
-0.021499999 0.12543151 0.0216651 4290647119
0.022875 0.12505451 0.0213481 4290647119
-0.094499998 0.126168 0.021918099 4290647119
-0.045000002 0.127556 0.020392001 4290647119
-0.0425 0.12609699 0.020267 4290647119
-0.041249998 0.12610275 0.020394025 4290647119
-0.039250001 0.1261275 0.020965599 4290647119
-0.037249997 0.12611225 0.020616274 4290647119
-0.035999998 0.126086 0.020013001 4290647119
-0.021 0.126119 0.020775033 4290647119
-0.019199999 0.1267142 0.021104461 4290647119
-0.01725 0.12757826 0.020931775 4290647119
0.017124999 0.12721151 0.02083705 4290647119
0.019099999 0.1267056 0.02090122 4290647119
0.020750001 0.1261545 0.0216006 4290647119
-0.094250001 0.128319 0.02128 4290647119
-0.093999997 0.12902901 0.020897999 4290647119
-0.045083333 0.1290295 0.020897999 4290647119
-0.015 0.12830825 0.021026 4290647119
-0.0125 0.128993 0.020009 4290647119
-0.0095000006 0.12978649 0.021659 4290647119
0.0115 0.1297785 0.0214685 4290647119
0.01275 0.12972499 0.020135 4290647119
0.01475 0.128775 0.020602001 4290647119
-0.092749991 0.131208 0.020894999 4290647119
-0.045416664 0.13071567 0.020683998 4290647119
-0.0011666667 0.130467 0.020515 4290647119
0 0.130502 0.021404 4290647119
0.00575 0.1305095 0.0215945 4290647119
0.0070000007 0.13050534 0.021488667 4290647119
0.0090000005 0.13046901 0.0205658 4290647119
0.0105 0.130447 0.020006999 4290647119
-0.092249997 0.132651 0.020639 4290647119
-0.091750003 0.13267501 0.0212739 4290647119
-0.047083333 0.133164 0.021400267 4290647119
-0.090499997 0.13530034 0.020254301 4290647119
-0.048875 0.1352205 0.021397348 4290647119
-0.04775 0.13411801 0.0210179 4290647119
-0.090499997 0.13678332 0.021098832 4290647119
-0.090000004 0.136314 0.0215228 4290647119
-0.050375 0.1374135 0.0218387 4290647119
-0.04975 0.13700166 0.020421298 4290647119
-0.090666674 0.13920902 0.021264801 4290647119
-0.090000004 0.139222 0.021645701 4290647119
-0.050999999 0.1392024 0.021061599 4290647119
-0.091374993 0.14100599 0.020690873 4290647119
-0.052375 0.14101399 0.0209448 4290647119
-0.051750004 0.14088432 0.020669864 4290647119
-0.091625005 0.1424605 0.02075235 4290647119
-0.091750003 0.14425801 0.020114999 4290647119
-0.091499999 0.147918 0.0211256 4290647119
-0.052625 0.1475495 0.020935699 4290647119
-0.091124997 0.14899701 0.020743251 4290647119
-0.052749999 0.148654 0.021505499 4290647119
-0.09025 0.15009899 0.021249499 4290647119
-0.089375004 0.15117601 0.020740226 4290647119
-0.086874999 0.152633 0.020928599 4290647119
-0.0845 0.15372901 0.021244399 4290647119
-0.083999999 0.153732 0.0213714 4290647119
-0.083000004 0.1544565 0.0213069 4290647119
0.02925 0.036865201 0.023687299 4290647119
0.03125 0.037592001 0.023750201 4290647119
0.032500003 0.037518535 0.023052568 4290647119
0.033750001 0.038265601 0.023305699 4290647119
0.035149999 0.038508601 0.02287424 4290647119
0.037083331 0.039208468 0.023135865 4290647119
0.0385 0.039627649 0.0225437 4290647119
0.039500002 0.040439799 0.023430867 4290647119
0.041250002 0.0410305 0.0221623 4290647119
0.042750001 0.04185465 0.023176201 4290647119
0.045125 0.042938448 0.023207074 4290647119
0.047499999 0.04392755 0.022287201 4290647119
0.047375001 0.044388898 0.02330105 4290647119
0.048900001 0.045307856 0.023122901 4290647119
0.04975 0.046202302 0.023426451 4290647119
0.051035713 0.047103669 0.023172256 4290647119
0.051750001 0.048411801 0.0239316 4290647119
0.052999999 0.049043715 0.023007885 4290647119
0.054249998 0.049671698 0.02203 4290647119
0.0535 0.050547998 0.0236765 4290647119
0.054875001 0.051177002 0.022836164 4290647119
0.056000002 0.0518452 0.0224075 4290647119
0.055500001 0.052671399 0.02367365 4290647119
0.056600004 0.05329458 0.022760298 4290647119
0.056968749 0.0548338 0.02313205 4290647119
0.057500001 0.056870651 0.023145124 4290647119
0.058375001 0.05713385 0.02214605 4278190335
-0.058499999 0.0596187 0.022205751 4290647119
-0.057000004 0.059687026 0.022966774 4290647119
-0.055166665 0.059445202 0.022903701 4290647119
-0.053750001 0.05894465 0.022587299 4290647119
0.05765 0.0588888 0.02353872 4290647119
0.058437496 0.059133127 0.022713874 4290647119
-0.064999998 0.0617605 0.022392867 4290647119
-0.063062504 0.061263174 0.022774251 4290647119
-0.061124999 0.060729176 0.0227433 4290647119
-0.059249997 0.060417749 0.023219526 4290647119
0.057999998 0.061170951 0.023726001 4290647119
0.058666665 0.061078612 0.022689933 4290647119
-0.069000006 0.063890748 0.0224532 4290647119
-0.067100003 0.062942877 0.022949558 4290647119
-0.065500006 0.062586546 0.02372415 4290647119
0.057999998 0.0632888 0.023659799 4290647119
0.058499999 0.0632217 0.02289838 4290647119
-0.070500001 0.065329298 0.022705 4290647119
-0.069300003 0.064673297 0.023302559 4290647119
0.057875 0.065041699 0.023467101 4290647119
0.058499999 0.065301701 0.022387626 4290647119
-0.072624996 0.067044899 0.022067599 4290647119
-0.071374997 0.066416219 0.022989098 4290647119
0.057437498 0.066951394 0.023035988 4290647119
0.058249999 0.066696197 0.022131599 4290647119
0.045450002 0.069380358 0.023702661 4290647119
0.046999998 0.069656454 0.023619751 4290647119
0.055100001 0.06949164 0.023346839 4290647119
0.056571428 0.068676226 0.022799956 4290647119
0.045041665 0.0706653 0.022993818 4290647119
0.047249999 0.070286252 0.022697851 4290647119
0.049249999 0.070628956 0.023160158 4290647119
0.051125001 0.070698142 0.023380123 4290647119
0.052999999 0.070719324 0.023033002 4290647119
0.054649998 0.070418216 0.022583362 4290647119
-0.079750001 0.073916599 0.023773 4290647119
0.044666667 0.073145233 0.0230115 4290647119
-0.081 0.075272024 0.0230403 4290647119
0.0449 0.075125679 0.022983301 4290647119
-0.082375005 0.076992795 0.022433951 4290647119
-0.081499994 0.076682948 0.022974774 4290647119
0.045125 0.077028997 0.022878949 4290647119
0.045150001 0.07867004 0.023029219 4290647119
0.0449 0.081093401 0.023229439 4290647119
-0.085249998 0.083735801 0.0226149 4290647119
0.044937503 0.082875624 0.022934351 4290647119
-0.086374998 0.085585147 0.023630649 4290647119
-0.085583329 0.084759332 0.023631735 4290647119
0.045000002 0.085166931 0.022803824 4290647119
-0.086874999 0.087012902 0.023568749 4290647119
0.044749998 0.087307245 0.022710325 4290647119
-0.088249996 0.089440301 0.022364801 4290647119
-0.087650001 0.088637359 0.023177519 4290647119
0.044333335 0.088774465 0.023084499 4290647119
-0.088416666 0.090904802 0.022707166 4290647119
-0.088 0.090977654 0.02370395 4290647119
0.043916669 0.0909639 0.023513066 4290647119
0.04425 0.090889499 0.0224951 4290647119
-0.088500001 0.093076155 0.02288124 4290647119
0.043749999 0.093101248 0.023231152 4290647119
0.04425 0.092320099 0.0223708 4290647119
-0.088416666 0.095246904 0.023055332 4290647119
-0.088 0.094586603 0.023902001 4290647119
0.043249998 0.095264368 0.023309732 4290647119
-0.088375002 0.097012699 0.0225714 4290647119
-0.087916672 0.096723534 0.023609499 4290647119
0.042625003 0.097042799 0.0230166 4290647119
-0.088249996 0.098096602 0.0226372 4290647119
-0.087750003 0.098860629 0.023306474 4290647119
0.041874997 0.099184707 0.02276665 4290647119
0.04225 0.098130599 0.023146 4290647119
-0.087499999 0.10097716 0.022664366 4290647119
0.041125003 0.1006445 0.02308755 4290647119
-0.086687498 0.10296901 0.022869773 4290647119
-0.085374996 0.1049575 0.023032799 4290647119
0.039375 0.1049965 0.02366855 4290647119
-0.084624998 0.107161 0.02379995 4290647119
0.037999999 0.107528 0.0239278 4290647119
0.038874999 0.1063745 0.022654399 4290647119
-0.084624998 0.1092825 0.02316875 4290647119
0.037333336 0.10892233 0.023167968 4290647119
0.036499999 0.110383 0.0235523 4290647119
0.03475 0.113267 0.02368515 4290647119
0.033375002 0.115058 0.023561699 4290647119
0.034000002 0.114672 0.0230527 4290647119
0.031500001 0.117569 0.0234397 4290647119
0.03258333 0.11635733 0.023183199 4290647119
-0.09375 0.119751 0.023952199 4290647119
0.029624999 0.1193855 0.0238245 4290647119
0.030750001 0.118294 0.023568301 4290647119
-0.094499998 0.121879 0.0233215 4290647119
-0.028749999 0.121896 0.0237025 4290647119
0.026000001 0.121902 0.023829499 4290647119
0.027125001 0.121516 0.0232572 4290647119
0.0285 0.120464 0.0238267 4290647119
-0.094624996 0.1229805 0.023637399 4290647119
-0.032749999 0.12335449 0.023890901 4290647119
-0.031000001 0.12306783 0.022896349 4290647119
-0.028999999 0.122572 0.022621799 4290647119
-0.027249999 0.12260567 0.023362765 4290647119
-0.025049999 0.12344179 0.022607919 4290647119
-0.024 0.123334 0.0234464 4290647119
0.025125001 0.1229575 0.02312935 4290647119
-0.094500005 0.12477067 0.023147933 4290647119
-0.044749998 0.1249312 0.023494901 4290647119
-0.043125 0.12439399 0.022825625 4290647119
-0.041249998 0.12445571 0.023045557 4290647119
-0.039124999 0.12511538 0.022729374 4290647119
-0.037250001 0.125071 0.022899542 4290647119
-0.035 0.124519 0.022915432 4290647119
-0.03325 0.124029 0.022767931 4290647119
-0.022999998 0.12402225 0.022619775 4290647119
-0.021107143 0.12486771 0.022990543 4290647119
-0.0195 0.1255085 0.02344325 4290647119
0.02125 0.12549765 0.023189234 4290647119
0.023083335 0.124516 0.022851935 4290647119
-0.094250001 0.126921 0.022552099 4290647119
-0.093999997 0.1269345 0.02286965 4290647119
-0.045499999 0.12694684 0.023165984 4290647119
-0.019000001 0.12620266 0.022722533 4290647119
-0.017200001 0.1268104 0.02336516 4290647119
-0.01525 0.12766476 0.022995599 4290647119
0.0155 0.127689 0.023567099 4290647119
0.016625 0.1272805 0.022488099 4290647119
0.019166665 0.12620501 0.0227648 4290647119
-0.093499996 0.12910201 0.022675999 4290647119
-0.046250001 0.129822 0.022547999 4290647119
-0.045833331 0.12909199 0.022422032 4290647119
-0.013 0.12841076 0.023502573 4290647119
-0.01125 0.12911874 0.023088749 4290647119
-0.0089999996 0.12960567 0.023183333 4290647119
-0.0072499998 0.12985468 0.023352334 4290647119
0.0095000006 0.12986299 0.023564 4290647119
0.011124999 0.12948751 0.023247 4290647119
0.0132 0.1288234 0.02295584 4290647119
0.01475 0.12836432 0.022380734 4290647119
-0.092249997 0.131312 0.0235619 4290647119
-0.046708331 0.13117434 0.02311755 4290647119
-0.046 0.130532 0.0221659 4290647119
-0.003 0.13055199 0.022673899 4290647119
0.001 0.13055366 0.022716267 4290647119
0.00275 0.13057399 0.023213649 4290647119
0.0044999998 0.13055201 0.022673899 4290647119
-0.092 0.132018 0.0230528 4290647119
-0.047500003 0.13260059 0.023128241 4290647119
-0.048999999 0.13492666 0.023302635 4290647119
-0.090499997 0.13778301 0.0220287 4290647119
-0.090000004 0.137796 0.022409599 4290647119
-0.05108333 0.13757467 0.0230025 4290647119
-0.050000001 0.136336 0.022157701 4290647119
-0.09025 0.138522 0.022408601 4290647119
-0.052250002 0.13996001 0.0220256 4290647119
-0.051624998 0.13888425 0.022408076 4290647119
-0.052499998 0.143595 0.022274399 4290647119
-0.053166669 0.14506754 0.023005879 4290647119
-0.091124997 0.14762449 0.0237287 4290647119
-0.053350002 0.14695559 0.02310756 4290647119
-0.090625003 0.14905301 0.022901401 4290647119
-0.090000004 0.14943101 0.0235356 4290647119
-0.053125001 0.149069 0.023536149 4290647119
-0.088949993 0.1507228 0.02300054 4290647119
-0.087750003 0.15159699 0.023151601 4290647119
-0.05325 0.1516 0.0232786 4290647119
-0.086750001 0.15233049 0.02353145 4290647119
-0.085249998 0.153064 0.0239112 4290647119
-0.083499998 0.15376 0.0226408 4290647119
-0.054249998 0.153061 0.0237843 4290647119
-0.081499994 0.1544825 0.022512801 4290647119
-0.077 0.15595701 0.023653101 4290647119
0.028958336 0.037592251 0.024891833 4290647119
0.0305 0.037652101 0.024320999 4290647119
0.0295 0.038511299 0.025652051 4290647119
0.031000001 0.038471453 0.025271574 4290647119
0.032749999 0.038864225 0.025099058 4290647119
0.034900002 0.039466299 0.025156479 4290647119
0.03675 0.039833233 0.024530465 4290647119
0.037749998 0.040668048 0.02564995 4290647119
0.039166667 0.041127734 0.025459265 4290647119
0.040999997 0.041503731 0.0244445 4290647119
0.041249998 0.042080101 0.025395 4290647119
0.043214284 0.043073483 0.025058942 4290647119
0.044750001 0.043416448 0.024379451 4290647119
0.0454375 0.044398077 0.025202624 4290647119
0.047041669 0.045009151 0.024716085 4290647119
0.048 0.046425499 0.025707699 4290647119
0.049249999 0.047086176 0.025109543 4290647119
0.050500002 0.047740798 0.0244391 4290647119
0.051214285 0.049036819 0.025089646 4290647119
0.052500002 0.049893849 0.02437385 4290647119
0.051624998 0.050385348 0.025767151 4290647119
0.05305 0.051082123 0.024841478 4290647119
0.053625003 0.052512601 0.025765 4290647119
0.054642856 0.052876983 0.024796015 4290647119
0.055321429 0.054845612 0.025318915 4290647119
0.056125 0.055218749 0.02443105 4290647119
0.055624999 0.056738101 0.02557045 4290647119
0.056333333 0.057006899 0.024640249 4290647119
-0.054499999 0.059795201 0.02417185 4290647119
-0.053750001 0.0598066 0.0242987 4290647119
0.055750001 0.058540501 0.025948999 4290647119
0.05659375 0.059251651 0.025012849 4290647119
-0.063000001 0.061914399 0.0241269 4290647119
-0.061000001 0.061465163 0.024381233 4290647119
-0.059 0.061317898 0.025375301 4290647119
-0.057250001 0.0605454 0.024646651 4290647119
-0.055750001 0.0606163 0.025439501 4290647119
0.057178568 0.06107137 0.024877114 4290647119
-0.066500001 0.063333496 0.0241674 4290647119
-0.065099999 0.063113056 0.024878422 4290647119
-0.063500002 0.062732399 0.025373749 4290647119
-0.061250001 0.0620308 0.025437949 4290647119
0.057031251 0.062804013 0.025183337 4290647119
-0.068833336 0.065283269 0.024884401 4290647119
-0.067249998 0.064354867 0.025054701 4290647119
0.055750001 0.065600201 0.025815001 4290647119
0.056840908 0.064752072 0.024938846 4290647119
-0.070625 0.066550851 0.024544351 4290647119
-0.069749996 0.06622465 0.02486215 4290647119
0.044 0.067710601 0.025685901 4290647119
0.045035716 0.067398153 0.025577327 4290647119
0.046750002 0.067721501 0.025812849 4290647119
0.0535 0.067732401 0.0259398 4290647119
0.054949999 0.067127332 0.025483292 4290647119
0.056416664 0.06666337 0.024480717 4290647119
-0.075125001 0.069381103 0.02454095 4290647119
0.043749999 0.069111325 0.025525648 4290647119
0.044821434 0.06873028 0.024614315 4290647119
0.047124997 0.068700723 0.0248593 4290647119
0.049083333 0.069079824 0.025155192 4290647119
0.05108333 0.069084339 0.025208117 4290647119
0.052999996 0.069058955 0.024910837 4290647119
0.05478571 0.068615235 0.02445117 4290647119
-0.077000007 0.071179248 0.024888225 4290647119
-0.075999998 0.070528403 0.025555899 4290647119
0.043812498 0.071024001 0.025142502 4290647119
0.04425 0.071139097 0.024411799 4290647119
-0.07858333 0.073068403 0.024917865 4290647119
0.043875001 0.072961152 0.02504505 4290647119
0.04425 0.073267147 0.024472799 4290647119
-0.080250002 0.075374097 0.0242796 4290647119
-0.079549998 0.074891999 0.025297116 4290647119
0.043833334 0.074757569 0.025381999 4290647119
0.04425 0.075415999 0.0247881 4290647119
-0.080624998 0.076425105 0.024151199 4290647119
-0.079999998 0.0761756 0.0254228 4290647119
0.044 0.076877654 0.0253585 4290647119
0.044500001 0.076789297 0.024277899 4290647119
0.044 0.079025097 0.025674099 4290647119
0.044437498 0.079109624 0.024529424 4290647119
-0.084375001 0.08150015 0.025671601 4290647119
-0.083999999 0.080429196 0.0255455 4290647119
0.044 0.081156753 0.025799152 4290647119
0.044375002 0.080716699 0.02471835 4290647119
-0.084749997 0.082570903 0.025797701 4290647119
0.044 0.083278 0.025797 4290647119
0.044333335 0.083194636 0.024736634 4290647119
-0.085875005 0.085619703 0.024076201 4290647119
0.043875001 0.085035898 0.025667951 4290647119
0.044416666 0.085277438 0.024225101 4290647119
-0.086374998 0.087085903 0.024523299 4290647119
-0.085750006 0.086765498 0.025031766 4290647119
0.043812498 0.086959898 0.025223024 4290647119
0.04425 0.0867071 0.0242681 4290647119
-0.086750001 0.088926859 0.025120767 4290647119
0.043583333 0.088909499 0.024887467 4290647119
-0.087333329 0.091064401 0.024891615 4290647119
0.043166663 0.091086246 0.025188567 4290647119
-0.087499999 0.09321849 0.024880674 4290647119
0.042999998 0.093235634 0.025120581 4290647119
-0.087375 0.095028125 0.025079526 4290647119
0.042625003 0.095027998 0.025079524 4290647119
-0.087166667 0.096825875 0.025114799 4290647119
0.041812498 0.097029284 0.025464976 4290647119
0.042374998 0.0964536 0.0249233 4290647119
-0.086821437 0.099080108 0.025073702 4290647119
0.041250002 0.098959498 0.024800951 4290647119
-0.086599998 0.10095479 0.024550539 4290647119
-0.085812502 0.10135149 0.025695749 4290647119
0.039999999 0.101866 0.025315201 4290647119
0.040416669 0.101115 0.024805168 4290647119
-0.08625 0.102504 0.024045 4290647119
-0.085649997 0.1031362 0.02496168 4290647119
0.039749999 0.10328625 0.025063701 4290647119
0.04025 0.10252 0.024299299 4290647119
-0.084750004 0.1048848 0.025371879 4290647119
0.039000001 0.10476366 0.025744567 4290647119
-0.084375001 0.1064845 0.0244978 4290647119
-0.083812498 0.1070775 0.025420573 4290647119
0.037625 0.107285 0.0258976 4290647119
0.038374998 0.106511 0.0249428 4290647119
-0.084250003 0.1089815 0.024185 4290647119
-0.083750002 0.10879501 0.025116667 4290647119
0.036833335 0.109061 0.025583232 4290647119
0.035499997 0.11133619 0.0251809 4290647119
0.034374997 0.1129895 0.025209475 4290647119
0.031750001 0.115543 0.025976701 4290647119
0.032892857 0.11468243 0.025212741 4290647119
0.031125002 0.11704967 0.025026737 4290647119
0.032000002 0.116202 0.024834501 4290647119
0.02775 0.119843 0.025857801 4290647119
0.029000001 0.11909427 0.025221214 4290647119
0.03025 0.118345 0.024584601 4290647119
-0.094250001 0.121207 0.0243362 4290647119
-0.093916662 0.12122867 0.024801934 4290647119
-0.044750001 0.121996 0.0258618 4290647119
-0.032499999 0.12199 0.025734801 4290647119
-0.03125 0.12197001 0.025290249 4290647119
-0.029625 0.121608 0.025226075 4290647119
-0.027249999 0.12195376 0.024940951 4290647119
0.025416667 0.12173901 0.025480336 4290647119
0.026949998 0.12094481 0.02486914 4290647119
0.028000001 0.120488 0.024334799 4290647119
-0.094250001 0.122639 0.0240825 4290647119
-0.09375 0.12318067 0.0253943 4290647119
-0.045125 0.12304775 0.025114 4290647119
-0.043222222 0.12292189 0.024999522 4290647119
-0.04135 0.12326779 0.025174001 4290647119
-0.039250001 0.12344175 0.025827926 4290647119
-0.037249997 0.1234405 0.025796149 4290647119
-0.035050001 0.12328039 0.025453439 4290647119
-0.03325 0.12291667 0.024886601 4290647119
-0.031500001 0.122653 0.02440005 4290647119
-0.026249999 0.12265 0.024336601 4290647119
-0.025000002 0.122698 0.02538445 4290647119
-0.023000002 0.12339733 0.024843566 4290647119
-0.021749999 0.123429 0.025542099 4290647119
0.02335 0.1232792 0.025428042 4290647119
0.02475 0.12266967 0.024759933 4290647119
-0.094250001 0.124087 0.024080399 4290647119
-0.09375 0.12486375 0.025254225 4290647119
-0.046250001 0.124879 0.025603499 4290647119
-0.045499999 0.12459183 0.024566585 4290647119
-0.04025 0.124087 0.024080399 4290647119
-0.039000001 0.12411426 0.024683725 4290647119
-0.037 0.1241055 0.024493176 4290647119
-0.035500001 0.124093 0.0242074 4290647119
-0.020750001 0.12411766 0.024757801 4290647119
-0.019107142 0.12494986 0.024859441 4290647119
-0.017437501 0.125412 0.025380425 4290647119
0.01925 0.12533833 0.025073567 4290647119
0.021178572 0.124743 0.024859728 4290647119
0.02275 0.124116 0.024715466 4290647119
-0.093583338 0.127014 0.024753531 4290647119
-0.046416666 0.127048 0.0255579 4290647119
-0.046 0.126294 0.024839301 4290647119
-0.017000001 0.126279 0.024500599 4290647119
-0.01525 0.12678801 0.025113732 4290647119
-0.013333333 0.12750851 0.025028018 4290647119
-0.0115 0.12777367 0.025599202 4290647119
0.014812499 0.1275875 0.025472451 4290647119
0.017100001 0.1265908 0.025016662 4290647119
-0.092999995 0.129181 0.024623333 4290647119
-0.046749998 0.129195 0.024962015 4290647119
-0.011 0.1284565 0.02461385 4290647119
-0.0092000002 0.1289098 0.02506404 4290647119
-0.0070500001 0.12935339 0.025292 4290647119
-0.0051250001 0.129564 0.025136111 4290647119
-0.003 0.12990525 0.02461165 4290647119
-0.00099999993 0.12991524 0.024865652 4290647119
0.00099999993 0.12992024 0.02499265 4290647119
0.003 0.12991525 0.024865676 4290647119
0.0049999999 0.1299165 0.0248974 4290647119
0.0069999998 0.12989849 0.024452975 4290647119
0.0090000005 0.12944335 0.025131 4290647119
0.011083332 0.128949 0.024835369 4290647119
0.012499999 0.1284605 0.0247091 4290647119
-0.092500001 0.130648 0.0250869 4290647119
-0.047624998 0.13101751 0.025276851 4290647119
-0.091250002 0.132854 0.025972599 4290647119
-0.048599999 0.1329706 0.025235821 4290647119
-0.048 0.13208599 0.024830701 4290647119
-0.09025 0.13423499 0.0241926 4290647119
-0.050250001 0.13572501 0.0253333 4290647119
-0.049374998 0.13462825 0.025049224 4290647119
-0.0513 0.137015 0.02497584 4290647119
-0.052375 0.13895801 0.024630152 4290647119
-0.052749999 0.14080301 0.025706701 4290647119
-0.091499999 0.143705 0.025956299 4290647119
-0.053107142 0.14295743 0.025159342 4290647119
-0.091150001 0.1452866 0.025598461 4290647119
-0.090800002 0.1468672 0.025189837 4290647119
-0.054249998 0.147302 0.0251892 4290647119
-0.053750001 0.147278 0.024300501 4290647119
-0.090374999 0.148366 0.0243624 4290647119
-0.089499995 0.1488982 0.025339181 4290647119
-0.053687498 0.14856499 0.025060374 4290647119
-0.088499993 0.1501905 0.024930999 4290647119
-0.087125003 0.15128183 0.025140965 4290647119
-0.0535625 0.15073451 0.02496195 4290647119
