# .PCD v0.7 - Point Cloud Data file format
VERSION 0.7
FIELDS x y z rgb
SIZE 4 4 4 4
TYPE F F F U
COUNT 1 1 1 1
WIDTH 1091
HEIGHT 1
VIEWPOINT 0 0 0 1 0 0 0
POINTS 1091
DATA ascii
0.04575 0.082108296 0.019945201 4290647119
0.045499999 0.0842354 0.019941401 4290647119
-0.089375004 0.089564949 0.019184101 4290647119
0.044750001 0.090703599 0.019950001 4290647119
-0.089500003 0.0914158 0.019824401 4290647119
-0.089749999 0.092110001 0.0194443 4290647119
0.0425 0.098631203 0.019840499 4290647119
0.04225 0.099344403 0.019714899 4290647119
-0.088874996 0.100402 0.019335851 4290647119
-0.088500001 0.101477 0.0192111 4290647119
-0.088249996 0.102199 0.0192127 4290647119
-0.088 0.102921 0.019214399 4290647119
-0.086750001 0.105117 0.0197278 4290647119
0.039749999 0.105125 0.019855 4290647119
0.039000001 0.107245 0.019097 4290647119
0.037999999 0.108689 0.019100299 4290647119
-0.085749999 0.109411 0.019102 4290647119
0.03675 0.110904 0.0199949 4290647119
0.037 0.110183 0.0199933 4290647119
0.035999998 0.111619 0.0198694 4290647119
0.036499999 0.111605 0.0196153 4290647119
0.035750002 0.112299 0.0191085 4290647119
-0.093000002 0.115915 0.019243799 4290647119
-0.093249999 0.116657 0.019626601 4290647119
-0.093500003 0.117385 0.0197553 4290647119
-0.093874998 0.118445 0.01931305 4290647119
-0.029750001 0.12462451 0.019824501 4290647119
-0.028999999 0.124599 0.0192529 4290647119
-0.02775 0.12459651 0.019189399 4290647119
-0.02675 0.124599 0.0192529 4290647119
-0.02575 0.1246215 0.019761 4290647119
-0.031500001 0.12533501 0.01944245 4290647119
-0.024250001 0.12532599 0.019252 4290647119
-0.02375 0.125349 0.01976 4290647119
-0.044499997 0.12655634 0.019673666 4290647119
-0.043749999 0.12630866 0.019546999 4290647119
-0.042625003 0.126425 0.019440999 4290647119
-0.03875 0.12678599 0.019377001 4290647119
-0.037500001 0.12677801 0.0191865 4290647119
-0.035500001 0.126081 0.019886 4290647119
-0.03475 0.126075 0.019758999 4290647119
-0.033750001 0.12606201 0.0194415 4290647119
-0.022500001 0.126059 0.019378001 4290647119
-0.022 0.126075 0.019758999 4290647119
-0.020500001 0.12679151 0.019504 4290647119
-0.044500001 0.127534 0.019884 4290647119
-0.044 0.127508 0.019249 4290647119
-0.018750001 0.1275135 0.019376 4290647119
0.0175 0.12752567 0.019672332 4290647119
0.018750001 0.12751301 0.019376 4290647119
-0.044375002 0.12861699 0.019692 4290647119
-0.01725 0.128235 0.019247999 4290647119
-0.0165 0.1282405 0.019375 4290647119
-0.0135 0.128962 0.019246999 4290647119
-0.013 0.128962 0.019246999 4290647119
0.015 0.128967 0.019374 4290647119
0.016249999 0.12824599 0.019502001 4290647119
0.01375 0.12971 0.019754 4290647119
0.011 0.130427 0.019499 4290647119
-0.046 0.13189 0.019750999 4290647119
0.00575 0.13116799 0.019879 4290647119
0.0065000001 0.13115549 0.019561499 4290647119
-0.090875 0.1344225 0.019430101 4290647119
-0.048 0.13477901 0.0192391 4290647119
-0.048500001 0.135518 0.01955555 4290647119
-0.090999998 0.13626 0.019998999 4290647119
-0.049249999 0.13697401 0.019617099 4290647119
-0.048999999 0.13625599 0.019872 4290647119
-0.090999998 0.13770901 0.01987 4290647119
-0.091250002 0.13989399 0.019994 4290647119
-0.090999998 0.139167 0.019995 4290647119
-0.050625 0.13953049 0.019994501 4290647119
-0.050999999 0.140617 0.0198661 4290647119
-0.05125 0.14132699 0.019357201 4290647119
-0.092 0.142074 0.019990999 4290647119
-0.052000001 0.142058 0.019483199 4290647119
-0.092 0.14352401 0.0198621 4290647119
-0.052499998 0.14643399 0.019985 4290647119
-0.052250002 0.14714 0.0192223 4290647119
-0.052250002 0.148598 0.019347301 4290647119
-0.052499998 0.149341 0.019981001 4290647119
-0.090750001 0.15006199 0.0197262 4290647119
-0.052874997 0.150425 0.019725701 4290647119
-0.088500001 0.15222999 0.019215399 4290647119
0.046999998 0.043028399 0.020512899 4290647119
0.0495 0.044434998 0.020131901 4290647119
0.0515 0.045892101 0.020258 4290647119
0.052250002 0.0466021 0.020130901 4290647119
0.052999999 0.047361199 0.0205107 4290647119
0.053750001 0.048083398 0.0205104 4290647119
0.054749999 0.048805501 0.020509999 4290647119
0.05525 0.049563602 0.020889699 4290647119
0.056000002 0.050225899 0.020255901 4290647119
0.057 0.0516675 0.0205069 4290647119
0.057250001 0.052411702 0.020885799 4290647119
0.05875 0.055176899 0.020120399 4290647119
-0.0535 0.057349902 0.020623799 4290647119
-0.057999998 0.058756098 0.020494601 4290647119
-0.054749999 0.058035798 0.020369001 4290647119
0.059250001 0.058047201 0.0204958 4278190335
-0.061250001 0.0594308 0.020112799 4290647119
-0.0605 0.059482049 0.02068365 4290647119
-0.065250002 0.0609053 0.020744599 4290647119
-0.063500002 0.060139801 0.0201116 4290647119
-0.063000001 0.0601965 0.020745801 4290647119
0.059625 0.060522649 0.02042805 4290647119
-0.066750005 0.061591551 0.02048965 4290647119
0.059500001 0.061591499 0.0204897 4290647119
-0.069499999 0.062986903 0.0202334 4290647119
-0.06825 0.062289201 0.0203616 4290647119
-0.067749999 0.062311601 0.0206153 4290647119
0.059749998 0.0622667 0.0201078 4290647119
-0.070249997 0.063740402 0.020739799 4290647119
-0.068999998 0.063054003 0.020994799 4290647119
0.059625 0.063380502 0.02067695 4290647119
-0.071500003 0.064427003 0.0204848 4290647119
-0.071000002 0.0644603 0.020865601 4290647119
0.059500001 0.0644603 0.020865601 4290647119
-0.072499998 0.065877803 0.0208632 4290647119
-0.07175 0.065168999 0.020864399 4290647119
0.059375003 0.065517902 0.0208003 4290647119
0.059250001 0.0665536 0.0204811 4290647119
0.058875002 0.067622349 0.0205427 4290647119
0.057999998 0.068701804 0.020731401 4290647119
0.058499999 0.068658501 0.0202234 4290647119
0.057750002 0.069389001 0.0204762 4290647119
-0.078249998 0.070806697 0.0204737 4290647119
0.04575 0.070849597 0.0209819 4290647119
0.055750001 0.070849597 0.0209819 4290647119
0.056625001 0.070457652 0.02053785 4290647119
-0.078749999 0.071494251 0.020218398 4290647119
-0.078000002 0.071494199 0.0202184 4290647119
0.04575 0.071515597 0.0204725 4290647119
0.046999998 0.071526296 0.0205996 4290647119
0.04775 0.071531653 0.020663101 4290647119
0.048500001 0.071558297 0.020980701 4290647119
0.055 0.071547598 0.0208536 4290647119
0.055500001 0.071504898 0.020345399 4290647119
0.0495 0.072229803 0.0205348 4290647119
0.050499998 0.072256401 0.020852501 4290647119
0.0515 0.072251052 0.020788949 4290647119
0.052500002 0.072245702 0.020725399 4290647119
0.0535 0.072229803 0.0205348 4290647119
0.054249998 0.072203197 0.0202171 4290647119
0.04575 0.0736316 0.0203417 4290647119
0.045499999 0.074393101 0.020976 4290647119
0.04575 0.075059898 0.0204664 4290647119
0.046 0.077196799 0.020589801 4290647119
0.046250001 0.077864401 0.02008 4290647119
0.046 0.078624703 0.0207146 4290647119
0.04575 0.079343803 0.0208406 4290647119
0.046250001 0.0793029 0.0203318 4290647119
-0.085249998 0.080751099 0.020710999 4290647119
-0.085000001 0.080032103 0.020585001 4290647119
0.045874998 0.080381401 0.020520799 4290647119
-0.085500002 0.081449799 0.0205826 4290647119
0.045499999 0.081480101 0.0209642 4290647119
-0.085749999 0.0821485 0.020454099 4290647119
0.045499999 0.0828574 0.0204529 4290647119
-0.085749999 0.083586201 0.020706199 4290647119
-0.087499999 0.085692801 0.020447999 4290647119
-0.087750003 0.086443298 0.020831401 4290647119
-0.088 0.087164201 0.020833001 4290647119
-0.088500001 0.088577397 0.020454301 4290647119
0.045000002 0.088567801 0.020327 4290647119
-0.088749997 0.089308001 0.020583199 4290647119
-0.089249998 0.090722203 0.020204499 4290647119
-0.089000002 0.090029001 0.020584701 4290647119
0.044500001 0.0914803 0.020715101 4290647119
-0.089500003 0.092886098 0.020209299 4290647119
-0.089749999 0.093598403 0.020083699 4290647119
0.04425 0.093661197 0.020974301 4290647119
-0.089500003 0.094364204 0.0207214 4290647119
0.044 0.0943553 0.0205942 4290647119
0.043749999 0.095058799 0.020341299 4290647119
-0.089249998 0.096527196 0.0207261 4290647119
-0.089000002 0.0972481 0.0207277 4290647119
0.042750001 0.0979691 0.0207293 4290647119
-0.089000002 0.098647997 0.020094899 4290647119
-0.088749997 0.099386103 0.020350801 4290647119
-0.088375002 0.1004965 0.02079835 4290647119
-0.088 0.101582 0.0208643 4290647119
-0.087624997 0.1026435 0.02054875 4290647119
0.040750001 0.102311 0.020993 4290647119
-0.087250002 0.103698 0.0201061 4290647119
0.0405 0.103032 0.0209946 4290647119
-0.086750001 0.1044465 0.0205527 4290647119
0.039999999 0.104435 0.020362001 4290647119
-0.08625 0.105187 0.020872099 4290647119
-0.085625 0.108405 0.020434249 4290647119
-0.085249998 0.10949 0.0205002 4290647119
0.027000001 0.121767 0.020908101 4290647119
0.026249999 0.122488 0.0207801 4290647119
-0.03025 0.123946 0.0209051 4290647119
-0.0285 0.1239315 0.020587549 4290647119
-0.0275 0.1239205 0.020333499 4290647119
-0.0265 0.123932 0.020587601 4290647119
-0.032000002 0.124672 0.0209041 4290647119
-0.030749999 0.124647 0.0203325 4290647119
-0.02475 0.124644 0.020269001 4290647119
-0.024 0.124667 0.020777101 4290647119
-0.043749999 0.125393 0.0207761 4290647119
-0.034499999 0.1253925 0.0207761 4290647119
-0.033500001 0.125379 0.020458501 4290647119
-0.032499999 0.125365 0.020141 4290647119
-0.023250001 0.125365 0.020141 4290647119
-0.022500001 0.1253925 0.0207761 4290647119
-0.0425 0.12609699 0.020267 4290647119
-0.041749999 0.12609449 0.020203501 4290647119
-0.040750001 0.126111 0.02058455 4290647119
-0.039500002 0.12612499 0.020902099 4290647119
-0.039000001 0.12612499 0.020902099 4290647119
-0.037500001 0.126119 0.020775 4290647119
-0.03675 0.1261 0.0203305 4290647119
-0.035999998 0.126086 0.020013001 4290647119
-0.021500001 0.126103 0.020393999 4290647119
-0.021 0.126119 0.020775 4290647119
-0.0195 0.126829 0.020392999 4290647119
0.0185 0.12683749 0.020583499 4290647119
0.0195 0.1268425 0.0207105 4290647119
-0.045000002 0.127556 0.020392001 4290647119
-0.017749999 0.1275555 0.020392001 4290647119
0.0165 0.12754001 0.020011 4290647119
-0.044750001 0.128272 0.020137001 4290647119
-0.0155 0.12827951 0.020327501 4290647119
-0.0125 0.128993 0.020009 4290647119
0.01575 0.12826601 0.02001 4290647119
-0.093999997 0.12902901 0.020897999 4290647119
-0.044750001 0.12973499 0.020389 4290647119
0.012499999 0.1297275 0.0201985 4290647119
0.01325 0.12972 0.020008 4290647119
0.0145 0.129024 0.020771001 4290647119
-0.093000002 0.130477 0.020769 4290647119
-0.045000002 0.130447 0.020006999 4290647119
-0.00075000001 0.13045451 0.0201975 4290647119
0.00875 0.13046201 0.020388 4290647119
0.0097499993 0.1304595 0.0203245 4290647119
0.0105 0.130447 0.020006999 4290647119
-0.092749998 0.131208 0.020895001 4290647119
-0.04575 0.131203 0.020768 4290647119
-0.092249997 0.132651 0.020639 4290647119
-0.046999998 0.13337301 0.020510999 4290647119
-0.090499997 0.13480701 0.020001 4290647119
-0.090499997 0.135547 0.020380951 4290647119
-0.090499997 0.136283 0.020633901 4290647119
-0.049625002 0.1366435 0.02056995 4290647119
-0.090750001 0.137018 0.0208869 4290647119
-0.050000001 0.13771801 0.020124 4290647119
-0.050250001 0.138445 0.020122999 4290647119
-0.05125 0.13992301 0.0208828 4290647119
-0.091499999 0.140633 0.020373899 4290647119
-0.0515 0.140637 0.0205009 4290647119
-0.091750003 0.14135499 0.020245999 4290647119
-0.052250002 0.14136299 0.0204999 4290647119
-0.051750001 0.14135499 0.020245999 4290647119
-0.091625005 0.1424605 0.02075235 4290647119
-0.091750003 0.14425801 0.020114999 4290647119
-0.052625 0.1475495 0.020935699 4290647119
-0.091250002 0.148637 0.0208707 4290647119
-0.090999998 0.14935701 0.020615799 4290647119
-0.090000004 0.15081 0.020613801 4290647119
-0.089249998 0.151527 0.020231901 4290647119
-0.088749997 0.15154199 0.0208667 4290647119
-0.08625 0.152992 0.0207377 4290647119
0.0405 0.040231202 0.021402 4290647119
0.041749999 0.041004598 0.021908799 4290647119
0.048250001 0.043801099 0.0210196 4290647119
0.048999999 0.0445983 0.021779699 4290647119
0.050625 0.045630552 0.021272101 4290647119
0.051750001 0.046737701 0.021524901 4290647119
0.052499998 0.0474592 0.0215245 4290647119
0.05325 0.048168499 0.021397401 4290647119
0.054000001 0.048902199 0.021523699 4290647119
0.054749999 0.049611699 0.021396499 4290647119
0.055 0.050381001 0.0219029 4290647119
0.055500001 0.050333299 0.021396101 4290647119
0.056374997 0.051384203 0.021267701 4290647119
0.05675 0.052506201 0.0218996 4290647119
0.057625003 0.053510047 0.021264251 4290647119
0.057999998 0.054596402 0.021516001 4290647119
0.058249999 0.055293199 0.0213881 4290647119
0.058624998 0.056356102 0.0213864 4278190335
0.059 0.057384402 0.021004301 4278190335
-0.057500001 0.058824699 0.021255599 4290647119
-0.05675 0.058818951 0.02119215 4290647119
-0.055750001 0.058841851 0.02144585 4290647119
-0.054624997 0.058481801 0.021383001 4290647119
-0.0535 0.058139 0.02151035 4290647119
0.058875002 0.058510453 0.021700051 4278190335
-0.059500001 0.059573151 0.02169835 4290647119
0.059250001 0.059533302 0.0212544 4278190335
-0.064500004 0.060950503 0.021252099 4290647119
-0.063749999 0.060995702 0.021759599 4290647119
-0.0625 0.060253199 0.0213801 4290647119
-0.061750002 0.060281601 0.021697249 4290647119
0.059250001 0.060961802 0.021379 4290647119
-0.066 0.061692901 0.0216316 4290647119
-0.067249998 0.062378898 0.021376699 4290647119
0.059250001 0.062390201 0.021503599 4290647119
-0.069750004 0.063807197 0.021501301 4290647119
-0.068499997 0.063087501 0.0213756 4290647119
0.059 0.063121103 0.021756301 4290647119
0.059250001 0.063785002 0.021247501 4290647119
-0.070500001 0.064504698 0.0213733 4290647119
0.059 0.064515799 0.0215002 4290647119
-0.071624994 0.06557855 0.021498499 4290647119
0.059 0.065899797 0.0211171 4290647119
-0.072750002 0.066630401 0.0213698 4290647119
0.05875 0.066630401 0.0213698 4290647119
0.058499999 0.067327999 0.0212417 4290647119
0.057625003 0.068434447 0.02174795 4290647119
0.058249999 0.068025701 0.021113601 4290647119
0.05675 0.069497101 0.0217463 4290647119
0.057250001 0.069453903 0.021238299 4290647119
0.045249999 0.070903197 0.021617001 4290647119
0.046500001 0.070871048 0.02123595 4290647119
0.047499999 0.0708979 0.02155355 4290647119
0.048250001 0.070935398 0.021998201 4290647119
0.054749999 0.070935398 0.021998201 4290647119
0.05525 0.070892498 0.02149 4290647119
0.056249999 0.070178598 0.02142765 4290647119
0.045000002 0.071622401 0.021743 4290647119
0.048999999 0.071590401 0.0213618 4290647119
0.04975 0.071617052 0.02167945 4290647119
0.050750002 0.071622401 0.021743 4290647119
0.051750001 0.07163845 0.02193355 4290647119
0.052749999 0.071622401 0.021743 4290647119
0.0535 0.071611702 0.0216159 4290647119
0.054250002 0.071585052 0.0212983 4290647119
0.045374997 0.072647944 0.0212966 4290647119
0.045125 0.073404104 0.021867301 4290647119
0.045499999 0.075862698 0.0216092 4290647119
0.04575 0.0765296 0.021099599 4290647119
-0.083750002 0.077967502 0.0213516 4290647119
-0.082999997 0.077300303 0.0218613 4290647119
0.045625001 0.077623598 0.021479249 4290647119
-0.083583333 0.078474127 0.021774666 4290647119
-0.082499996 0.078019001 0.0219873 4290647119
-0.084250003 0.079394899 0.0214765 4290647119
-0.083750002 0.079405099 0.021603599 4290647119
-0.084624998 0.080452599 0.021411151 4290647119
0.045499999 0.0801339 0.0218569 4290647119
-0.085000001 0.081510402 0.0213459 4290647119
-0.085374996 0.082568251 0.021280501 4290647119
-0.085000001 0.0829475 0.021598 4290647119
0.045249999 0.083655998 0.021596899 4290647119
-0.086999997 0.085742101 0.0210844 4290647119
-0.087250002 0.086511701 0.021722401 4290647119
-0.088249996 0.087904297 0.021089099 4290647119
-0.087499999 0.087241702 0.021851201 4290647119
0.044750001 0.0893647 0.021346699 4290647119
-0.088749997 0.090843 0.0218588 4290647119
0.044500001 0.090103999 0.0216028 4290647119
-0.089000002 0.091535598 0.021478601 4290647119
-0.089249998 0.092228703 0.0210984 4290647119
-0.089000002 0.092994697 0.0217361 4290647119
-0.089249998 0.093688101 0.021356 4290647119
-0.089000002 0.094444297 0.0218664 4290647119
-0.089249998 0.095111698 0.0211046 4290647119
-0.088874996 0.095511653 0.0216779 4290647119
0.043499999 0.095841102 0.0212334 4290647119
-0.088749997 0.096613698 0.021998201 4290647119
0.043249998 0.096570402 0.0213622 4290647119
-0.088749997 0.097994603 0.021110799 4290647119
0.043000001 0.097282499 0.0212365 4290647119
-0.088500001 0.0987406 0.021493999 4290647119
-0.088249996 0.099477798 0.021749901 4290647119
0.041000001 0.101647 0.021881601 4290647119
-0.086874999 0.1034125 0.02131325 4290647119
0.04025 0.103761 0.021123299 4290647119
-0.086000003 0.104489 0.021252001 4290647119
-0.085750006 0.10568267 0.021127401 4290647119
-0.085000001 0.105961 0.0217636 4290647119
-0.085500002 0.1066435 0.0211295 4290647119
-0.085500002 0.107357 0.0210039 4290647119
-0.085000001 0.107387 0.021512499 4290647119
0.0385 0.107372 0.0212582 4290647119
-0.085249998 0.108107 0.021514 4290647119
-0.084875003 0.1084815 0.021769 4290647119
0.038249999 0.108078 0.0210055 4290647119
0.037250001 0.109526 0.021135701 4290647119
0.036249999 0.11101 0.021901401 4290647119
0.035 0.113151 0.0215248 4290647119
-0.032249998 0.123986 0.0217942 4290647119
-0.031500001 0.12398 0.021667199 4290647119
-0.030750001 0.123974 0.0215402 4290647119
-0.029625 0.1236045 0.0213819 4290647119
-0.028749999 0.12326 0.0217952 4290647119
-0.02775 0.123248 0.021541201 4290647119
-0.02675 0.12326 0.0217952 4290647119
-0.0255 0.1239545 0.0210956 4290647119
-0.02475 0.12398 0.021667199 4290647119
0.024625 0.1236085 0.02147715 4290647119
-0.033750001 0.12469999 0.0215391 4290647119
-0.032749999 0.1246835 0.021158099 4290647119
-0.031500001 0.124678 0.0210311 4290647119
-0.023499999 0.124683 0.021158099 4290647119
-0.022750001 0.12469999 0.0215391 4290647119
0.023499999 0.124678 0.0210311 4290647119
-0.094750002 0.125404 0.0210301 4290647119
-0.04425 0.12542 0.0214111 4290647119
-0.043249998 0.12542 0.0214111 4290647119
-0.0425 0.125412 0.0212206 4290647119
-0.041500002 0.1254255 0.021538101 4290647119
-0.0405 0.12544 0.0218556 4290647119
-0.036249999 0.12543701 0.021792101 4290647119
-0.035500001 0.125412 0.0212206 4290647119
-0.021499999 0.12543151 0.0216651 4290647119
0.02225 0.125431 0.0216651 4290647119
-0.094499998 0.126168 0.021918099 4290647119
-0.039999999 0.12613 0.0210291 4290647119
-0.0385 0.12613 0.0210291 4290647119
-0.037999999 0.12613 0.0210291 4290647119
-0.020500001 0.12613501 0.021156101 4290647119
-0.02 0.12616301 0.021791101 4290647119
-0.0185 0.126875 0.021472599 4290647119
0.017750001 0.126883 0.0216631 4290647119
0.0195 0.126168 0.021918099 4290647119
0.020750001 0.1261545 0.0216006 4290647119
-0.01675 0.127601 0.021471551 4290647119
-0.094250001 0.128319 0.02128 4290647119
-0.045249999 0.128314 0.021152999 4290647119
-0.0145 0.128337 0.0217245 4290647119
-0.045374997 0.12941051 0.021342 4290647119
-0.045000002 0.129035 0.021025 4290647119
-0.0095000006 0.12978649 0.021659 4290647119
0.0115 0.1297785 0.0214685 4290647119
0.014 0.129035 0.021025 4290647119
-0.045499999 0.13049699 0.021276999 4290647119
-0.0020000001 0.130492 0.02115 4290647119
0 0.130502 0.021404 4290647119
0.00575 0.1305095 0.0215945 4290647119
0.0065000001 0.13050701 0.021531001 4290647119
0.0072499998 0.1305045 0.021467499 4290647119
0.0080000004 0.130502 0.021404 4290647119
-0.092500001 0.13193899 0.021020999 4290647119
-0.091750003 0.13267501 0.0212739 4290647119
-0.046750002 0.13269401 0.021781901 4290647119
-0.047499999 0.133425 0.0219079 4290647119
-0.048500001 0.13485301 0.021270899 4290647119
-0.04775 0.13411801 0.0210179 4290647119
-0.049249999 0.13558801 0.0215238 4290647119
-0.090000004 0.136314 0.0215228 4290647119
-0.09025 0.137049 0.0217757 4290647119
-0.050375 0.1374135 0.0218387 4290647119
-0.090750001 0.138483 0.021265799 4290647119
-0.050749999 0.138487 0.0213928 4290647119
-0.090625003 0.13957199 0.0212643 4290647119
-0.090000004 0.139222 0.021645701 4290647119
-0.051750001 0.139952 0.0217716 4290647119
-0.050999999 0.13920499 0.0211378 4290647119
-0.090999998 0.14065699 0.0211358 4290647119
-0.052499998 0.14066499 0.0213897 4290647119
-0.052000001 0.140661 0.0212627 4290647119
-0.091250002 0.141379 0.0210078 4290647119
-0.091499999 0.147918 0.0211256 4290647119
-0.052749999 0.148654 0.021505499 4290647119
-0.09025 0.15009899 0.021249499 4290647119
-0.089500003 0.15082499 0.021248501 4290647119
-0.087499999 0.152274 0.0211195 4290647119
-0.0845 0.15372901 0.021244399 4290647119
-0.083999999 0.153732 0.0213714 4290647119
-0.083250001 0.15445501 0.021243401 4290647119
-0.08275 0.154458 0.0213704 4290647119
0.033 0.0374384 0.0222915 4290647119
0.03475 0.038185898 0.022544701 4290647119
0.035250001 0.038132802 0.0220374 4290647119
0.037 0.038933199 0.022797899 4290647119
0.0385 0.039627649 0.0225437 4290647119
0.039999999 0.0403485 0.022543199 4290647119
0.041250002 0.0410305 0.0221623 4290647119
0.043000001 0.041828901 0.0229226 4290647119
0.044750001 0.042498302 0.022414999 4290647119
0.047499999 0.04392755 0.022287201 4290647119
0.048500001 0.0447114 0.0229205 4290647119
0.0495 0.045394551 0.02253975 4290647119
0.050500002 0.0461278 0.022666 4290647119
0.05125 0.046848599 0.022665501 4290647119
0.052000001 0.047569402 0.022665 4290647119
0.052749999 0.048278 0.0225378 4290647119
0.0535 0.0489747 0.022283901 4290647119
0.053750001 0.049743801 0.022790199 4290647119
0.054249998 0.049671698 0.02203 4290647119
0.054499999 0.050440598 0.0225363 4290647119
0.055500001 0.051365033 0.022323767 4290647119
0.056000002 0.0518452 0.0224075 4290647119
0.056249999 0.052565198 0.022533201 4290647119
0.05675 0.053279299 0.022595551 4290647119
0.057250001 0.053969901 0.022404401 4290647119
0.057500001 0.054689799 0.022530099 4290647119
0.057750002 0.055386301 0.0224023 4290647119
0.057750002 0.0563577 0.022696733 4290647119
0.058249999 0.056779701 0.022146599 4290647119
0.057999998 0.057545599 0.022779601 4290647119
0.058499999 0.057487998 0.0221455 4290647119
-0.054499999 0.058916099 0.022270201 4290647119
-0.053750001 0.05894465 0.022587299 4290647119
0.058375001 0.058596302 0.022651199 4290647119
-0.058499999 0.0596187 0.022205751 4290647119
-0.057500001 0.059647199 0.0225228 4290647119
-0.05525 0.059669901 0.022776499 4290647119
0.05875 0.059635799 0.022396 4290647119
-0.06075 0.060321301 0.0221412 4290647119
-0.059999999 0.060366701 0.0226487 4290647119
0.059 0.060309999 0.0220144 4290647119
-0.065499999 0.061737999 0.0221391 4290647119
-0.064750001 0.06177175 0.022519751 4290647119
-0.063249998 0.061040901 0.022267001 4290647119
-0.0625 0.061091848 0.022837952 4290647119
0.05875 0.061535668 0.022520101 4290647119
-0.066499993 0.062474348 0.022455249 4290647119
0.05875 0.062479898 0.0225187 4290647119
-0.069250003 0.063862897 0.0221359 4290647119
-0.068750001 0.063918598 0.0227705 4290647119
-0.068000004 0.0632217 0.0228984 4290647119
0.05875 0.063885197 0.022389701 4290647119
-0.07 0.064582303 0.0222618 4290647119
0.058499999 0.0646156 0.022642501 4290647119
-0.070749998 0.0652906 0.022260699 4290647119
0.058500003 0.065530397 0.022302667 4290647119
-0.072250001 0.066696197 0.022131599 4290647119
-0.071625002 0.066385999 0.022639949 4290647119
0.057875 0.066391498 0.022703499 4290647119
0.058249999 0.066696197 0.022131599 4290647119
-0.072999999 0.067393601 0.0220036 4290647119
0.057750002 0.067415446 0.022257552 4290647119
0.05675 0.068853706 0.0225094 4290647119
0.057250001 0.068145499 0.0225104 4290647119
0.055750001 0.069583498 0.022762399 4290647119
0.056249999 0.069551103 0.022381401 4290647119
0.044750001 0.070999697 0.022760401 4290647119
0.045499999 0.070270129 0.022507368 4290647119
0.046750002 0.070264697 0.022443801 4290647119
0.047499999 0.070302397 0.0228884 4290647119
0.048749998 0.070956901 0.0222522 4290647119
0.0495 0.070994347 0.022696849 4290647119
0.050250001 0.070999697 0.022760401 4290647119
0.052500002 0.070999697 0.022760401 4290647119
0.0535 0.070983648 0.0225698 4290647119
0.05458333 0.070509799 0.022549333 4290647119
0.055500001 0.0702378 0.0221263 4290647119
0.050749999 0.0710105 0.022887399 4290647119
0.051750001 0.0710105 0.022887399 4290647119
0.044750001 0.072394699 0.022504199 4290647119
0.044750001 0.073842697 0.0228834 4290647119
0.045000002 0.074540302 0.022755301 4290647119
-0.081375003 0.075591996 0.022626702 4290647119
0.045249999 0.075206503 0.022245901 4290647119
-0.082249999 0.076643899 0.022498 4290647119
-0.081749998 0.0766543 0.0226252 4290647119
0.045249999 0.076633498 0.022370899 4290647119
-0.082500003 0.077341698 0.022369901 4290647119
-0.082000002 0.077352099 0.022497 4290647119
0.045374997 0.078414448 0.0224954 4290647119
0.045249999 0.079497099 0.022748301 4290647119
0.045249999 0.080903202 0.022619 4290647119
0.045000002 0.0816416 0.0229997 4290647119
0.045249999 0.082289301 0.0222353 4290647119
-0.085249998 0.083735801 0.0226149 4290647119
0.045000002 0.083037697 0.022743201 4290647119
0.045000002 0.084453903 0.0227412 4290647119
0.045125 0.0854913 0.0224215 4290647119
0.044750001 0.087990798 0.022234499 4290647119
0.045000002 0.087270796 0.022233 4290647119
-0.087875001 0.088360354 0.022362549 4290647119
0.044500001 0.088729903 0.0224906 4290647119
-0.088249996 0.089440301 0.022364801 4290647119
-0.088500001 0.090150803 0.0222391 4290647119
0.04425 0.090889499 0.0224951 4290647119
-0.088500001 0.091627702 0.0227511 4290647119
-0.088749997 0.092310898 0.0222436 4290647119
0.04425 0.092320099 0.0223708 4290647119
-0.088624999 0.093422547 0.022691149 4290647119
0.043875001 0.093422502 0.022691149 4290647119
-0.088500001 0.094515502 0.022884199 4290647119
0.043499999 0.094515502 0.022884199 4290647119
-0.088500001 0.095945999 0.02276 4290647119
-0.088249996 0.096674301 0.0228887 4290647119
-0.088500001 0.097351097 0.0222541 4290647119
0.0425 0.097393997 0.0228901 4290647119
-0.088249996 0.098096602 0.0226372 4290647119
-0.088 0.098833203 0.022893099 4290647119
0.041999999 0.098833203 0.022893099 4290647119
0.041749999 0.099536203 0.0226402 4290647119
-0.087875001 0.100575 0.022006549 4290647119
0.041375 0.100595 0.02232445 4290647119
-0.087499999 0.101655 0.022008801 4290647119
-0.087250002 0.102375 0.0220103 4290647119
-0.08625 0.103871 0.0229034 4290647119
-0.085249998 0.105294 0.022652101 4290647119
0.03875 0.106704 0.022146599 4290647119
0.037500001 0.108886 0.0225324 4290647119
-0.084749997 0.109599 0.0224068 4290647119
0.033 0.116085 0.0225474 4290647119
0.02775 0.121136 0.022811901 4290647119
-0.0295 0.12256899 0.0225583 4290647119
-0.0285 0.122575 0.022685301 4290647119
0.02575 0.122569 0.0225583 4290647119
-0.031500001 0.123288 0.022430301 4290647119
-0.030749999 0.12328 0.02223975 4290647119
-0.02575 0.123283 0.0223033 4290647119
-0.024250001 0.123997 0.0220482 4290647119
-0.094750002 0.12402 0.022556201 4290647119
-0.043749999 0.1247475 0.0226187 4290647119
-0.042750001 0.1247335 0.022301201 4290647119
-0.041749999 0.124742 0.022491701 4290647119
-0.040750001 0.124753 0.022745699 4290647119
-0.035750002 0.124759 0.02287275 4290647119
-0.03475 0.1247305 0.022237699 4290647119
-0.03325 0.124036 0.0229373 4290647119
-0.032749999 0.124003 0.0221752 4290647119
-0.023499999 0.124011 0.022365749 4290647119
-0.02275 0.124025 0.0226833 4290647119
-0.021749999 0.12473901 0.0224282 4290647119
0.023 0.124728 0.0221742 4290647119
0.02375 0.124036 0.0229373 4290647119
-0.044750001 0.125487 0.0229352 4290647119
-0.039499998 0.125451 0.0221097 4290647119
-0.0385 0.1254565 0.022236701 4290647119
-0.037500001 0.1254535 0.0221732 4290647119
-0.03675 0.125448 0.022046201 4290647119
-0.020500001 0.125476 0.022681199 4290647119
0.021749999 0.12548099 0.0228082 4290647119
-0.094250001 0.126921 0.022552099 4290647119
-0.045249999 0.126926 0.0226791 4290647119
-0.045000002 0.12619001 0.022426199 4290647119
-0.0195 0.12619001 0.022426199 4290647119
-0.018999999 0.126201 0.022680201 4290647119
-0.017750001 0.126932 0.022806101 4290647119
0.01725 0.12691 0.022298099 4290647119
0.018999999 0.126185 0.0222991 4290647119
0.02 0.126185 0.0222991 4290647119
-0.093999997 0.12763 0.0221701 4290647119
-0.045499999 0.127657 0.0228051 4290647119
-0.01575 0.12763801 0.022360601 4290647119
0.016000001 0.12765101 0.0226781 4290647119
-0.09375 0.12837701 0.022677001 4290647119
-0.04575 0.128382 0.0228041 4290647119
-0.01375 0.128382 0.0228041 4290647119
0.0145 0.12837151 0.02255005 4290647119
0.01525 0.12835 0.022042099 4290647119
-0.093374997 0.12946451 0.022675499 4290647119
-0.046250001 0.129822 0.022547999 4290647119
-0.045874998 0.129447 0.022231001 4290647119
-0.01175 0.12910199 0.022675999 4290647119
-0.0085000005 0.1298345 0.0228655 4290647119
0.01075 0.12983701 0.022929 4290647119
0.01275 0.129097 0.022549 4290647119
0.0135 0.129086 0.022295 4290647119
-0.046 0.130532 0.0221659 4290647119
-0.003 0.13055199 0.022673899 4290647119
0.00050000002 0.130542 0.02242 4290647119
0.001 0.13055199 0.022673899 4290647119
0.003 0.13056201 0.022927901 4290647119
0.0044999998 0.13055201 0.022673899 4290647119
-0.046374999 0.131623 0.0222279 4290647119
-0.047249999 0.132714 0.0222899 4290647119
-0.046999998 0.132008 0.0227989 4290647119
-0.048250001 0.134183 0.0227957 4290647119
-0.050000001 0.136336 0.022157701 4290647119
-0.090499997 0.13778301 0.0220287 4290647119
-0.090000004 0.137796 0.022409599 4290647119
-0.050999999 0.13779999 0.0225366 4290647119
-0.09025 0.138522 0.022408601 4290647119
-0.05125 0.138513 0.022154599 4290647119
-0.052250002 0.13996001 0.0220256 4290647119
-0.051750001 0.1392405 0.0222171 4290647119
-0.052499998 0.143595 0.022274399 4290647119
-0.0535 0.14554466 0.022779467 4290647119
-0.052625 0.1454145 0.022462251 4290647119
-0.052999999 0.14650799 0.022651101 4290647119
-0.052999999 0.147955 0.022522099 4290647119
-0.090499997 0.149409 0.022647001 4290647119
-0.089749999 0.15014 0.022899801 4290647119
-0.089000002 0.150856 0.022517901 4290647119
-0.088249996 0.151575 0.022263 4290647119
-0.083499998 0.15376 0.0226408 4290647119
-0.081499994 0.1544825 0.022512801 4290647119
0.02925 0.036865201 0.023687299 4290647119
0.030999999 0.037598699 0.0238136 4290647119
0.031500001 0.037585299 0.0236868 4290647119
0.032250002 0.0375586 0.0234331 4290647119
0.033750001 0.038265601 0.023305699 4290647119
0.034249999 0.038239099 0.023052 4290647119
0.035999998 0.0389596 0.0230515 4290647119
0.036499999 0.0389596 0.0230515 4290647119
0.035500001 0.039025601 0.023685601 4290647119
0.037749998 0.039732601 0.023558199 4290647119
0.039250001 0.040485449 0.0238747 4290647119
0.0425 0.041880399 0.0234298 4290647119
0.04425 0.042600699 0.0234292 4290647119
0.04575 0.043327399 0.023492049 4290647119
0.046750002 0.044041298 0.023428099 4290647119
0.048 0.044736501 0.023174001 4290647119
0.048500001 0.045519397 0.02380725 4290647119
0.04975 0.046202302 0.023426451 4290647119
0.050499998 0.046934851 0.0235526 4290647119
0.050999999 0.047679599 0.023805499 4290647119
0.0515 0.047630601 0.023298601 4290647119
0.051750001 0.048411801 0.0239316 4290647119
0.052250002 0.048338801 0.0231713 4290647119
0.052749999 0.049083449 0.023424201 4290647119
0.05325 0.049803801 0.023423599 4290647119
0.0535 0.050547998 0.0236765 4290647119
0.054000001 0.050488301 0.023042999 4290647119
0.054666668 0.051464003 0.02337957 4290647119
0.055500001 0.052671399 0.02367365 4290647119
0.056000002 0.0533792 0.023672801 4290647119
0.056625001 0.054414675 0.023386177 4290647119
0.05675 0.055491101 0.0235432 4290647119
0.057250001 0.055444501 0.0230361 4290647119
0.057 0.056187298 0.0234155 4290647119
0.057250001 0.056906801 0.0235413 4290647119
0.057 0.057637699 0.023793999 4290647119
0.057500001 0.057614699 0.0235404 4290647119
0.057500001 0.058322549 0.02353945 4290647119
-0.056499999 0.059726849 0.023410749 4290647119
-0.055750001 0.0597496 0.0236644 4290647119
0.057750002 0.059266299 0.023538232 4290647119
0.058249999 0.059704099 0.023157099 4290647119
-0.059500001 0.0604234 0.0232829 4290647119
-0.05875 0.060440451 0.023473252 4290647119
0.057999998 0.060457502 0.0236635 4290647119
0.058499999 0.060400698 0.023029201 4290647119
-0.064000003 0.061828099 0.0231541 4290647119
-0.061499998 0.06113705 0.0233454 4290647119
0.057999998 0.0618844 0.023788501 4290647119
0.058249999 0.061154 0.023535701 4290647119
-0.065500006 0.062586546 0.02372415 4290647119
0.058249999 0.062547296 0.023280101 4290647119
-0.067500003 0.063232899 0.0230253 4290647119
-0.067000002 0.0633111 0.0239136 4290647119
0.057999998 0.0632888 0.023659799 4290647119
0.058375001 0.063598052 0.023151699 4290647119
-0.069499999 0.064648896 0.0230233 4290647119
-0.068625003 0.064350501 0.023658399 4290647119
0.057999998 0.064682201 0.023404101 4290647119
-0.070249997 0.065367997 0.0231493 4290647119
-0.069750004 0.065434299 0.023910901 4290647119
0.057750002 0.065401196 0.0235301 4290647119
-0.071249999 0.066827901 0.0236552 4290647119
-0.071000002 0.066064999 0.023021299 4290647119
0.057374999 0.066468447 0.02359215 4290647119
0.05675 0.0675302 0.023590751 4290647119
0.04575 0.068972997 0.0239064 4290647119
0.055500001 0.068940498 0.0235254 4290647119
0.056333333 0.068443201 0.023229698 4290647119
0.044750001 0.069680803 0.023905501 4290647119
0.045499999 0.0696375 0.023397502 4290647119
0.046500001 0.069632098 0.023334 4290647119
0.047499999 0.069680803 0.023905501 4290647119
0.054499999 0.069659151 0.023651499 4290647119
0.05525 0.069615901 0.0231434 4290647119
0.044500001 0.0703777 0.0237776 4290647119
0.048 0.0703132 0.0230154 4290647119
0.048749998 0.070356198 0.0235235 4290647119
0.04975 0.070372351 0.023714099 4290647119
0.050750002 0.070388503 0.023904599 4290647119
0.051750001 0.070383102 0.0238411 4290647119
0.052749999 0.070361599 0.02358705 4290647119
0.0535 0.070345402 0.023396499 4290647119
0.054000001 0.070323899 0.0231425 4290647119
0.044500001 0.071804002 0.0239028 4290647119
0.05125 0.071021199 0.0230144 4290647119
-0.079750001 0.073916599 0.023773 4290647119
0.044500001 0.073198304 0.0236469 4290647119
-0.080499999 0.074582398 0.0232637 4290647119
0.044500001 0.074613899 0.023645001 4290647119
-0.080750003 0.075321697 0.023644101 4290647119
0.044750001 0.0752903 0.023262801 4290647119
0.045000002 0.0759774 0.023007501 4290647119
-0.081249997 0.0766958 0.023133701 4290647119
-0.081 0.076029599 0.023643199 4290647119
0.045000002 0.077424496 0.023387 4290647119
0.044750001 0.0781736 0.023894699 4290647119
0.045000002 0.078850597 0.0235123 4290647119
0.044750001 0.080984302 0.023636701 4290647119
0.045000002 0.080225602 0.0230016 4290647119
0.044500001 0.081712298 0.023890199 4290647119
0.044750001 0.082379803 0.023380401 4290647119
0.044750001 0.083795696 0.023378501 4290647119
-0.085749999 0.0845135 0.023504749 4290647119
-0.086374998 0.085585147 0.023630649 4290647119
-0.085249998 0.085251004 0.023885701 4290647119
0.044750001 0.0852312 0.0236311 4290647119
-0.086750001 0.086648397 0.023504401 4290647119
0.044750001 0.086619101 0.023122501 4290647119
-0.086999997 0.087377399 0.0236331 4290647119
0.044500001 0.087348297 0.023251301 4290647119
-0.087375 0.0884609 0.0236989 4290647119
0.04425 0.088096499 0.023634501 4290647119
-0.087750003 0.089544304 0.0237647 4290647119
0.04425 0.089497 0.0231284 4290647119
-0.088249996 0.090935901 0.0231313 4290647119
-0.088 0.090244599 0.0235116 4290647119
0.043875001 0.090618148 0.023703199 4290647119
-0.088 0.091710702 0.023896299 4290647119
0.044 0.091655403 0.023132799 4290647119
-0.088249996 0.0923931 0.023388701 4290647119
0.043749999 0.092411399 0.023643199 4290647119
-0.088249996 0.093831703 0.023391601 4290647119
0.043499999 0.093148597 0.023899101 4290647119
-0.088 0.094586603 0.023902001 4290647119
-0.088249996 0.095279202 0.0235218 4290647119
0.043125 0.095638797 0.0235225 4290647119
-0.087875001 0.096379749 0.023841999 4290647119
0.042750001 0.096691601 0.0231431 4290647119
-0.088 0.097411104 0.0231445 4290647119
-0.087624997 0.098524049 0.0236555 4290647119
0.04225 0.098130599 0.023146 4290647119
-0.087750003 0.0995612 0.0230218 4290647119
-0.087499999 0.100289 0.023150399 4290647119
0.041000001 0.100339 0.023913501 4290647119
-0.087250002 0.101025 0.0234062 4290647119
-0.086999997 0.101744 0.0234077 4290647119
0.040750001 0.101049 0.0237878 4290647119
-0.086750001 0.102463 0.0234091 4290647119
-0.086499996 0.103167 0.0231563 4290647119
-0.085500002 0.104621 0.0234135 4290647119
0.039500002 0.104645 0.023794999 4290647119
0.039250001 0.105348 0.023542101 4290647119
-0.084749997 0.106794 0.0236721 4290647119
0.039000001 0.106045 0.023162199 4290647119
-0.0845 0.107528 0.0239278 4290647119
0.037999999 0.107528 0.0239278 4290647119
-0.0845 0.108966 0.0239307 4290647119
0.037749998 0.108196 0.023039401 4290647119
0.03675 0.109685 0.023932099 4290647119
0.036499999 0.110383 0.0235523 4290647119
0.035250001 0.112541 0.023556599 4290647119
0.034249999 0.113993 0.0238137 4290647119
0.033500001 0.114712 0.023815099 4290647119
0.034000002 0.114672 0.0230527 4290647119
0.03325 0.115404 0.023308299 4290647119
0.032375 0.1164935 0.0235011 4290647119
0.031500001 0.117569 0.0234397 4290647119
0.030750001 0.118294 0.023568301 4290647119
-0.09375 0.119751 0.023952199 4290647119
0.029624999 0.1193855 0.0238245 4290647119
0.0285 0.120464 0.0238267 4290647119
-0.094499998 0.121879 0.0233215 4290647119
-0.028749999 0.121896 0.0237025 4290647119
0.026000001 0.121902 0.023829499 4290647119
0.0265 0.121896 0.0237025 4290647119
-0.094750002 0.122609 0.0234474 4290647119
-0.0305 0.1226095 0.02344745 4290647119
-0.0275 0.122592 0.0230664 4290647119
-0.02675 0.122633 0.0239555 4290647119
-0.094499998 0.123352 0.0238274 4290647119
-0.032749999 0.12335449 0.023890901 4290647119
-0.032000002 0.12334 0.0235734 4290647119
-0.02475 0.123323 0.0231924 4290647119
-0.024 0.123334 0.0234464 4290647119
0.024499999 0.123346 0.023700399 4290647119
-0.094499998 0.124778 0.0233173 4290647119
-0.044583336 0.12454966 0.023613999 4290647119
-0.043499999 0.1240475 0.023191299 4290647119
-0.0425 0.1240475 0.023191299 4290647119
-0.041500002 0.124062 0.02350885 4290647119
-0.040750001 0.124076 0.0238264 4290647119
-0.039750002 0.12477 0.0231268 4290647119
-0.03875 0.124784 0.023444301 4290647119
-0.037749998 0.124787 0.0235078 4290647119
-0.03675 0.124784 0.023444301 4290647119
-0.034499999 0.1240675 0.023635849 4290647119
-0.033750001 0.124048 0.023191299 4290647119
-0.02225 0.124042 0.0230643 4290647119
-0.021749999 0.124076 0.0238264 4290647119
-0.020750001 0.124784 0.023444301 4290647119
0.022500001 0.124784 0.023444301 4290647119
-0.094250001 0.125514 0.023570299 4290647119
-0.045249999 0.12552001 0.0236973 4290647119
-0.0195 0.1255085 0.02344325 4290647119
0.020749999 0.125514 0.023570299 4290647119
0.02125 0.125498 0.0231892 4290647119
-0.093999997 0.126239 0.0235692 4290647119
-0.045625001 0.126607 0.0236957 4290647119
-0.0185 0.12621699 0.023061199 4290647119
-0.017625 0.1265935 0.023378151 4290647119
-0.0165 0.12696651 0.023631699 4290647119
0.0185 0.12624501 0.023696201 4290647119
-0.046 0.127694 0.0236941 4290647119
-0.01475 0.12769151 0.0236306 4290647119
0.0155 0.127689 0.023567099 4290647119
-0.01325 0.128408 0.023438999 4290647119
-0.012499999 0.12842649 0.0238836 4290647119
0.013499999 0.12841851 0.0236931 4290647119
-0.010749999 0.12913549 0.0235015 4290647119
-0.0099999998 0.12914801 0.023819 4290647119
-0.0074999998 0.12985301 0.02331 4290647119
-0.0067500002 0.129858 0.023437001 4290647119
0.0095000006 0.12986299 0.023564 4290647119
0.01025 0.129842 0.023056 4290647119
0.01175 0.1291355 0.0235015 4290647119
-0.046750002 0.130588 0.023562901 4290647119
0.0015 0.130567 0.0230549 4290647119
0.0022499999 0.13057801 0.023308899 4290647119
0.0035000001 0.130578 0.023308899 4290647119
-0.092249997 0.131312 0.0235619 4290647119
-0.047249999 0.131327 0.0239428 4290647119
-0.046750002 0.13129701 0.0231809 4290647119
-0.092 0.132018 0.0230528 4290647119
-0.047624998 0.13240451 0.023687299 4290647119
-0.048 0.133472 0.023177801 4290647119
-0.048999999 0.134927 0.0233027 4290647119
-0.04975 0.13567001 0.0238095 4290647119
-0.0515 0.137831 0.0234254 4290647119
-0.050749999 0.13709299 0.023045501 4290647119
-0.051750001 0.13854299 0.0230435 4290647119
-0.0535 0.14436701 0.023860399 4290647119
-0.052749999 0.144343 0.0230351 4290647119
-0.052999999 0.145068 0.023034099 4290647119
-0.053750001 0.14652899 0.0234129 4290647119
-0.091250002 0.147264 0.023792701 4290647119
-0.090999998 0.147985 0.0236647 4290647119
-0.05325 0.147257 0.0235388 4290647119
-0.090750001 0.148697 0.023155799 4290647119
-0.05325 0.14871299 0.0237906 4290647119
-0.090000004 0.14943101 0.0235356 4290647119
-0.052999999 0.149425 0.023281701 4290647119
-0.089249998 0.150159 0.0236615 4290647119
-0.088500001 0.150884 0.0236605 4290647119
-0.087750003 0.15159699 0.023151601 4290647119
-0.05325 0.1516 0.0232786 4290647119
-0.086750001 0.15233049 0.02353145 4290647119
-0.085249998 0.153064 0.0239112 4290647119
-0.054249998 0.153061 0.0237843 4290647119
-0.077249996 0.15596201 0.023907 4290647119
-0.076750003 0.15595201 0.0233992 4290647119
0.028750001 0.036905501 0.024067899 4290647119
0.029750001 0.037685499 0.024638049 4290647119
0.0305 0.037652101 0.024320999 4290647119
0.031750001 0.038438201 0.0249545 4290647119
0.032499999 0.038385149 0.024447199 4290647119
0.03325 0.0383453 0.0240667 4290647119
0.03475 0.039117999 0.024573348 4290647119
0.03675 0.039811399 0.024319099 4290647119
0.037250001 0.0397982 0.0241923 4290647119
0.0405 0.041276749 0.024571501 4290647119
0.041999999 0.041957699 0.0241905 4290647119
0.042750001 0.0427288 0.024697 4290647119
0.043499999 0.042690352 0.02431665 4290647119
0.044 0.043473698 0.024949901 4290647119
0.044500001 0.043435499 0.024569601 4290647119
0.045000002 0.043397401 0.024189301 4290647119
0.04575 0.044155098 0.024568999 4290647119
0.046624999 0.044483401 0.02425175 4290647119
0.047499999 0.0448245 0.0240613 4290647119
0.04775 0.045619301 0.024821199 4290647119
0.048999999 0.046289101 0.024313601 4290647119
0.0495 0.047045849 0.02469315 4290647119
0.050500002 0.047740798 0.0244391 4290647119
0.05125 0.048448302 0.0243118 4290647119
0.051750001 0.04920435 0.0246912 4290647119
0.052500002 0.049893849 0.02437385 4290647119
0.052749999 0.050643351 0.02468995 4290647119
0.053750001 0.051303301 0.024182299 4290647119
0.054416668 0.052278399 0.024519101 4290647119
0.055500001 0.053426299 0.024179701 4290647119
0.055750001 0.054145701 0.024305601 4290647119
0.056000002 0.054864999 0.024431501 4290647119
0.056249999 0.055572499 0.024430601 4290647119
0.056416672 0.056516003 0.024429465 4290647119
0.056374997 0.057364549 0.024682101 4290647119
0.05675 0.058414299 0.024553999 4290647119
-0.054499999 0.059795201 0.02417185 4290647119
-0.053750001 0.0598066 0.0242987 4290647119
0.057 0.059110399 0.0244263 4290647119
0.057250001 0.0598066 0.0242987 4290647119
-0.057750002 0.060536899 0.0245515 4290647119
-0.05675 0.060553901 0.024741799 4290647119
0.057500001 0.060502801 0.0241709 4290647119
-0.063500002 0.0619069 0.024042301 4290647119
-0.062749997 0.061918151 0.024169199 4290647119
-0.061999999 0.061963201 0.024676699 4290647119
-0.0605 0.061216149 0.024233501 4290647119
-0.059749998 0.061267 0.0248044 4290647119
0.057500001 0.061480235 0.024550401 4290647119
-0.064500004 0.062665045 0.024612449 4290647119
0.057500001 0.062665045 0.024612449 4290647119
-0.066500001 0.063333496 0.0241674 4290647119
-0.065750003 0.063389398 0.024801901 4290647119
0.057500001 0.063367002 0.0245481 4290647119
-0.068499997 0.064793199 0.0246734 4290647119
-0.067499995 0.0640634 0.024420399 4290647119
0.057 0.064804301 0.024800301 4290647119
0.057500001 0.064291865 0.024335498 4290647119
-0.069250003 0.065467499 0.0242917 4290647119
0.05675 0.065511703 0.0247995 4290647119
0.057250001 0.065456398 0.0241648 4290647119
-0.070625 0.066550851 0.024544351 4290647119
-0.07 0.066208102 0.0246717 4290647119
0.056625001 0.066531673 0.024322176 4290647119
0.055500001 0.067634098 0.024797 4290647119
0.056000002 0.067601301 0.0244161 4290647119
0.044750001 0.068341501 0.024796201 4290647119
0.045333337 0.068551965 0.024499601 4290647119
0.046374999 0.068673551 0.024541799 4290647119
0.054875001 0.068662703 0.0244148 4290647119
0.055500001 0.068292499 0.024224799 4290647119
-0.075750001 0.069691598 0.0240325 4290647119
0.044375002 0.069375649 0.0244775 4290647119
0.046999998 0.069016397 0.0244144 4290647119
0.04775 0.069043547 0.024731901 4290647119
0.048500001 0.069713205 0.02428655 4290647119
0.0495 0.069734797 0.024540599 4290647119
0.050499998 0.069740199 0.024604101 4290647119
0.0515 0.069734797 0.024540599 4290647119
0.052666668 0.069502592 0.0245832 4290647119
0.0535 0.069488198 0.024413833 4290647119
0.054250002 0.069016449 0.024414402 4290647119
-0.076499999 0.070442297 0.0245397 4290647119
0.044 0.070463799 0.0247938 4290647119
-0.077249996 0.071107 0.0240307 4290647119
0.044 0.071878701 0.024792099 4290647119
0.04425 0.071139097 0.024411799 4290647119
-0.078249998 0.072575599 0.0246643 4290647119
0.04425 0.072554298 0.024410101 4290647119
-0.079000004 0.073283002 0.0246634 4290647119
0.044 0.073304199 0.024917601 4290647119
0.04425 0.073980004 0.0245355 4290647119
-0.079999998 0.0746665 0.0242805 4290647119
0.044 0.074718997 0.024916001 4290647119
-0.080250002 0.075374097 0.0242796 4290647119
0.04425 0.075415999 0.0247881 4290647119
-0.080624998 0.076425105 0.024151199 4290647119
0.044500005 0.076553434 0.024278199 4290647119
0.044500001 0.077496901 0.024277 4290647119
0.044375002 0.078579001 0.024530049 4290647119
0.044500001 0.079640254 0.0245288 4290647119
0.044500001 0.080327399 0.0242736 4290647119
0.044375002 0.083531648 0.02452415 4290647119
0.044500001 0.084563203 0.024141099 4290647119
-0.085875005 0.085619703 0.024076201 4290647119
0.044375002 0.085634544 0.0242671 4290647119
-0.08625 0.086726598 0.024522601 4290647119
-0.085500002 0.086007997 0.0245212 4290647119
0.04425 0.0867071 0.0242681 4290647119
-0.086499996 0.087445199 0.024524 4290647119
0.044 0.087445199 0.024524 4290647119
-0.086874999 0.088537395 0.024717052 4290647119
0.043875001 0.088513598 0.024398901 4290647119
-0.087250002 0.089610398 0.0246555 4290647119
0.043749999 0.089563198 0.0240192 4290647119
-0.087499999 0.090310201 0.0244024 4290647119
0.043499999 0.090338297 0.0247842 4290647119
-0.087624997 0.091392756 0.02446815 4290647119
0.043499999 0.091729097 0.0241508 4290647119
-0.087750003 0.092466198 0.024406699 4290647119
0.043249998 0.092484497 0.0246611 4290647119
-0.087749995 0.093427442 0.024450967 4290647119
0.043249998 0.093903497 0.024409501 4290647119
-0.087499999 0.094648898 0.0247926 4290647119
0.043000001 0.094622202 0.0244109 4290647119
-0.087750003 0.0953409 0.0244123 4290647119
0.042750001 0.095358498 0.024666799 4290647119
-0.087499999 0.0960683 0.024540899 4290647119
0.0425 0.096085697 0.0247954 4290647119
-0.087499999 0.097488299 0.024289399 4290647119
0.041999999 0.097514004 0.024670999 4290647119
-0.087250002 0.0982325 0.0246724 4290647119
-0.086999997 0.098950997 0.024673801 4290647119
0.041625001 0.098579049 0.024482301 4290647119
-0.087250002 0.099627897 0.0240392 4290647119
0.041250002 0.099644497 0.0242936 4290647119
-0.086999997 0.100347 0.024040701 4290647119
-0.086624995 0.1014335 0.02417 4290647119
0.0405 0.101785 0.0240435 4290647119
-0.08625 0.102504 0.024045 4290647119
0.04025 0.10252 0.024299299 4290647119
-0.085875005 0.1035855 0.024110701 4290647119
0.039875001 0.1035935 0.024237851 4290647119
-0.085000001 0.104715 0.0249393 4290647119
-0.084749997 0.105433 0.024940699 4290647119
-0.084375001 0.1064845 0.0244978 4290647119
0.038249999 0.106855 0.024689199 4290647119
-0.083999999 0.107588 0.0249449 4290647119
-0.084250003 0.10827 0.024310701 4290647119
-0.084250003 0.109693 0.024059299 4290647119
-0.083999999 0.10901 0.0246934 4290647119
0.035625003 0.111504 0.02431705 4290647119
0.034499999 0.113308 0.0244477 4290647119
0.033750001 0.114033 0.0245762 4290647119
0.032749999 0.115464 0.0244519 4290647119
0.031500001 0.1169045 0.0245183 4290647119
0.032000002 0.116202 0.024834501 4290647119
0.030999999 0.117626 0.0245832 4290647119
0.03025 0.118345 0.024584601 4290647119
0.0285 0.119785 0.02465095 4290647119
0.0295 0.119063 0.024586 4290647119
-0.093999997 0.120482 0.024207801 4290647119
