# .PCD v0.7 - Point Cloud Data file format
VERSION 0.7
FIELDS x y z rgb
SIZE 4 4 4 4
TYPE F F F U
COUNT 1 1 1 1
WIDTH 1091
HEIGHT 1
VIEWPOINT 0 0 0 1 0 0 0
POINTS 1091
DATA ascii
-0.01125 0.123074 0.033608701 4290647119
-0.01075 0.12308 0.033735801 4290647119
-0.01025 0.123091 0.033989798 4290647119
0.01025 0.123091 0.033989798 4290647119
0.01075 0.123085 0.033862799 4290647119
-0.050999999 0.123804 0.0338616 4290647119
-0.0089999996 0.123793 0.033607502 4290647119
-0.0085000005 0.123804 0.0338616 4290647119
-0.0080000004 0.12381 0.033988599 4290647119
-0.0074999998 0.12381 0.033988599 4290647119
-0.001 0.123804 0.0338616 4290647119
-0.00050000002 0.123804 0.0338616 4290647119
0 0.123804 0.0338616 4290647119
0.00050000002 0.123804 0.0338616 4290647119
0.00125 0.123807 0.033925101 4290647119
0.0022499999 0.123804 0.0338616 4290647119
0.003 0.123804 0.0338616 4290647119
0.0035000001 0.123804 0.0338616 4290647119
0.0042500002 0.123804 0.0338616 4290647119
0.0049999999 0.12381 0.033988599 4290647119
0.0055 0.12381 0.033988599 4290647119
0.0060000001 0.123804 0.0338616 4290647119
0.0065000001 0.12381 0.033988599 4290647119
0.0072499998 0.12381 0.033988599 4290647119
0.0080000004 0.12381 0.033988599 4290647119
0.00875 0.123804 0.0338616 4290647119
0.0094999997 0.123793 0.033607502 4290647119
-0.05125 0.125956 0.033730999 4290647119
-0.0515 0.12668601 0.033983801 4290647119
-0.051750001 0.127405 0.033982601 4290647119
-0.05125 0.127389 0.033601601 4290647119
-0.052000001 0.128124 0.033981401 4290647119
-0.0515 0.12810799 0.033600401 4290647119
-0.052250002 0.12884299 0.033980198 4290647119
-0.052499998 0.129557 0.033852 4290647119
-0.052749999 0.13027599 0.0338508 4290647119
-0.052999999 0.13099 0.033722602 4290647119
-0.053750001 0.13170999 0.033721399 4290647119
-0.054000001 0.132424 0.0335932 4290647119
-0.054749999 0.133148 0.033718999 4290647119
-0.055500001 0.13387699 0.033971801 4290647119
-0.055750001 0.13458601 0.033716701 4290647119
-0.056499999 0.13530999 0.0338425 4290647119
-0.057250001 0.13602901 0.033841301 4290647119
-0.058499999 0.13675299 0.033967 4290647119
-0.057999998 0.136748 0.033840101 4290647119
-0.059250001 0.137467 0.033838902 4290647119
-0.05875 0.13745899 0.0335849 4290647119
-0.059999999 0.13818599 0.033837698 4290647119
-0.059500001 0.13817801 0.033583701 4290647119
-0.060249999 0.138906 0.033836499 4290647119
-0.059749998 0.138897 0.033582501 4290647119
-0.0605 0.139625 0.033835299 4290647119
-0.059999999 0.139616 0.033581302 4290647119
-0.060249999 0.140348 0.033961002 4290647119
-0.059749998 0.14033499 0.033580098 4290647119
-0.087499999 0.145377 0.033825699 4290647119
-0.086499996 0.146816 0.0338233 4290647119
-0.085749999 0.14753801 0.033949099 4290647119
-0.085000001 0.148257 0.0339479 4290647119
-0.084250003 0.148973 0.033819702 4290647119
-0.058249999 0.14896999 0.0336928 4290647119
-0.082999997 0.149692 0.033818498 4290647119
-0.058249999 0.15041099 0.033817299 4290647119
-0.080499999 0.151133 0.033943102 4290647119
-0.058499999 0.151127 0.033689201 4290647119
-0.07925 0.151843 0.033560999 4290647119
-0.078749999 0.151849 0.033815 4290647119
-0.059250001 0.151849 0.033815 4290647119
-0.05875 0.151843 0.033560999 4290647119
-0.077500001 0.15256201 0.0335599 4290647119
-0.077 0.152568 0.033813801 4290647119
-0.0605 0.152568 0.033813801 4290647119
-0.059999999 0.15256201 0.0335599 4290647119
-0.074249998 0.153282 0.0335587 4290647119
-0.073749997 0.153285 0.033685599 4290647119
-0.073250003 0.153282 0.0335587 4290647119
-0.072750002 0.153282 0.0335587 4290647119
-0.072250001 0.15329 0.033939499 4290647119
-0.07175 0.15329 0.033939499 4290647119
-0.071249999 0.15329 0.033939499 4290647119
-0.070249997 0.15329 0.033939499 4290647119
-0.069750004 0.15329 0.033939499 4290647119
-0.068750001 0.15329 0.033939499 4290647119
-0.067249998 0.15329 0.033939499 4290647119
-0.06425 0.15329 0.033939499 4290647119
-0.063749999 0.15329 0.033939499 4290647119
-0.063249998 0.15329 0.033939499 4290647119
-0.062749997 0.15328699 0.033812601 4290647119
-0.062249999 0.153285 0.033685599 4290647119
-0.061749998 0.153282 0.0335587 4290647119
0.024250001 0.039434198 0.034466799 4290647119
0.025 0.040121201 0.0342118 4290647119
0.02575 0.040821601 0.034083702 4290647119
0.0265 0.041548301 0.0342093 4290647119
0.0275 0.0429754 0.0342067 4290647119
0.029750001 0.046555601 0.034327101 4290647119
0.030750001 0.047957901 0.034071099 4290647119
0.030999999 0.048696 0.034323301 4290647119
-0.052000001 0.050135002 0.034447402 4290647119
-0.050749999 0.050836399 0.034319401 4290647119
0.032249998 0.050836399 0.034319401 4290647119
-0.050500002 0.051525999 0.0340648 4290647119
0.03325 0.052242301 0.0341915 4290647119
-0.050000001 0.0529349 0.0340649 4290647119
0.033500001 0.052970398 0.034444999 4290647119
-0.04975 0.0536629 0.034318399 4290647119
0.034249999 0.053651098 0.034191702 4290647119
-0.0495 0.054379001 0.0344452 4290647119
0.034499999 0.0543672 0.034318499 4290647119
-0.04975 0.055048101 0.034065101 4290647119
-0.0495 0.055775899 0.0343187 4290647119
-0.04975 0.056456901 0.034065198 4290647119
-0.0495 0.057172898 0.0341921 4290647119
-0.04975 0.057865702 0.034065299 4290647119
0.036249999 0.057888899 0.034318902 4290647119
-0.0495 0.058593199 0.034318998 4290647119
-0.04975 0.059274599 0.0340655 4290647119
-0.0495 0.060001899 0.0343192 4290647119
-0.04975 0.060694799 0.034192398 4290647119
0.037749998 0.060683399 0.0340656 4290647119
-0.0495 0.061421901 0.034446198 4290647119
-0.04975 0.0621261 0.034446299 4290647119
-0.050000001 0.062830403 0.0344464 4290647119
-0.050749999 0.063512303 0.0341927 4290647119
0.038249999 0.063534699 0.0344465 4290647119
-0.0515 0.064239003 0.034446601 4290647119
-0.05525 0.064909898 0.034065999 4290647119
-0.054749999 0.064909898 0.034065999 4290647119
-0.054249998 0.064932197 0.034319799 4290647119
-0.053750001 0.064943299 0.034446701 4290647119
-0.057999998 0.065614298 0.034065999 4290647119
-0.057500001 0.065625399 0.034193002 4290647119
-0.057 0.065647602 0.034446798 4290647119
-0.056499999 0.065647602 0.034446798 4290647119
-0.060249999 0.0663298 0.034193002 4290647119
-0.059749998 0.066351898 0.034446899 4290647119
0.03875 0.066340797 0.034320001 4290647119
-0.0625 0.067034103 0.034193099 4290647119
-0.061999999 0.067045197 0.034320101 4290647119
0.039000001 0.067023098 0.0340662 4290647119
-0.06425 0.067727499 0.0340662 4290647119
-0.063749999 0.0677495 0.034320202 4290647119
-0.065499999 0.068442903 0.0341933 4290647119
0.039000001 0.068442903 0.0341933 4290647119
-0.066749997 0.069158196 0.034320299 4290647119
0.03875 0.069158196 0.034320299 4290647119
-0.068000004 0.0698516 0.0341934 4290647119
-0.069250003 0.070545197 0.034066498 4290647119
-0.068750001 0.070577599 0.034447499 4290647119
0.03875 0.070556 0.034193501 4290647119
-0.071249999 0.071975499 0.034320701 4290647119
0.03875 0.071964704 0.034193601 4290647119
-0.071999997 0.072679803 0.034320801 4290647119
-0.072750002 0.073384099 0.034320801 4290647119
0.03875 0.073384099 0.034320801 4290647119
-0.0735 0.074088499 0.034320898 4290647119
-0.074249998 0.074771702 0.0340668 4290647119
0.03875 0.074792802 0.034320999 4290647119
-0.074500002 0.0754866 0.034194 4290647119
0.039000001 0.0754866 0.034194 4290647119
-0.075499997 0.076884903 0.034067001 4290647119
-0.075750001 0.077610098 0.034321401 4290647119
0.039250001 0.077610098 0.034321401 4290647119
-0.076499999 0.078304097 0.034194302 4290647119
0.039500002 0.078293703 0.034067199 4290647119
0.039250001 0.079029098 0.034448698 4290647119
-0.077500001 0.079733402 0.034448799 4290647119
0.039500002 0.079702601 0.034067299 4290647119
-0.078249998 0.080417201 0.034194499 4290647119
0.039250001 0.080427401 0.034321699 4290647119
-0.07925 0.081815802 0.0340675 4290647119
0.039250001 0.0818462 0.0344491 4290647119
-0.079499997 0.082530297 0.034194801 4290647119
0.039500002 0.082520202 0.0340675 4290647119
-0.079750001 0.083244801 0.034322102 4290647119
0.039250001 0.083244801 0.034322102 4290647119
-0.079999998 0.083939098 0.034194902 4290647119
-0.080250002 0.084643401 0.034194998 4290647119
0.039250001 0.084633499 0.034067702 4290647119
0.039000001 0.0853578 0.034322299 4290647119
-0.080250002 0.086071998 0.0344497 4290647119
0.039250001 0.0860423 0.034067798 4290647119
-0.080499999 0.0867467 0.034067899 4290647119
0.039000001 0.086766399 0.0343225 4290647119
-0.080250002 0.087488703 0.034450799 4290647119
-0.080499999 0.088172004 0.034069899 4290647119
0.039000001 0.088181697 0.0341972 4290647119
-0.080250002 0.088913403 0.034452699 4290647119
0.03875 0.0889038 0.034325499 4290647119
-0.080499999 0.089597203 0.0340719 4290647119
-0.080250002 0.090328798 0.034327399 4290647119
0.03875 0.0903382 0.0344547 4290647119
-0.080250002 0.091744401 0.034202199 4290647119
0.03875 0.091735102 0.034074899 4290647119
-0.079999998 0.092466198 0.034330402 4290647119
0.0385 0.092466198 0.034330402 4290647119
-0.080250002 0.093160398 0.034076899 4290647119
0.038249999 0.0931786 0.0343314 4290647119
-0.079999998 0.093891099 0.034332398 4290647119
0.037999999 0.093891099 0.034332398 4290647119
-0.080250002 0.094594598 0.0342062 4290647119
0.037749998 0.094585598 0.0340789 4290647119
-0.079999998 0.095324896 0.034461599 4290647119
-0.080250002 0.096010901 0.0340809 4290647119
0.03675 0.096028499 0.034335401 4290647119
-0.079999998 0.096740998 0.034336399 4290647119
0.036499999 0.096723497 0.034081899 4290647119
-0.079750001 0.097444803 0.034210101 4290647119
-0.079499997 0.0981659 0.0343384 4290647119
-0.07925 0.098869897 0.034212101 4290647119
0.035750002 0.0988869 0.034466501 4290647119
-0.079000004 0.099582396 0.0342131 4290647119
0.035500001 0.099599198 0.0344675 4290647119
-0.078749999 0.100295 0.034214102 4290647119
0.035250001 0.100303 0.034341302 4290647119
0.035 0.100999 0.0340879 4290647119
-0.078500003 0.101007 0.0342151 4290647119
-0.078249998 0.101712 0.034088898 4290647119
0.034249999 0.101736 0.034470499 4290647119
-0.078000002 0.102425 0.034090001 4290647119
0.034000002 0.102441 0.034344301 4290647119
-0.077749997 0.103137 0.034091 4290647119
0.033750001 0.103145 0.034218099 4290647119
-0.077500001 0.10385 0.034092002 4290647119
0.033 0.103874 0.034473401 4290647119
-0.077249996 0.10457 0.034220099 4290647119
0.032749999 0.10457 0.034220099 4290647119
-0.077 0.105291 0.034348302 4290647119
0.032499999 0.105283 0.034221102 4290647119
-0.077249996 0.105988 0.034095 4290647119
-0.077 0.106723 0.034477402 4290647119
0.031500001 0.106723 0.034477402 4290647119
-0.077249996 0.107428 0.0343512 4290647119
0.03125 0.107428 0.0343512 4290647119
-0.077500001 0.10814 0.034352198 4290647119
0.030999999 0.108126 0.034097999 4290647119
0.03025 0.10886 0.0344803 4290647119
0.029999999 0.109558 0.034227099 4290647119
0.02925 0.110278 0.034355201 4290647119
0.028999999 0.110976 0.034102 4290647119
0.02775 0.11171 0.034484301 4290647119
0.02825 0.111696 0.034230102 4290647119
0.027249999 0.112415 0.0343582 4290647119
-0.037250001 0.113128 0.034359202 4290647119
-0.03675 0.113128 0.034359202 4290647119
-0.036249999 0.113121 0.034232099 4290647119
-0.035750002 0.113128 0.034359202 4290647119
-0.035250001 0.113128 0.034359202 4290647119
-0.03475 0.113128 0.034359202 4290647119
-0.034249999 0.113128 0.034359202 4290647119
-0.033750001 0.113135 0.034486201 4290647119
-0.03325 0.113135 0.034486201 4290647119
0.02575 0.113135 0.034486201 4290647119
0.026249999 0.113128 0.034359202 4290647119
0.02675 0.113114 0.034104999 4290647119
-0.046999998 0.113847 0.034487199 4290647119
-0.046500001 0.113847 0.034487199 4290647119
-0.046 0.11384 0.0343602 4290647119
-0.045499999 0.113847 0.034487199 4290647119
-0.045000002 0.113847 0.034487199 4290647119
-0.039999999 0.113847 0.034487199 4290647119
-0.039500002 0.113847 0.034487199 4290647119
-0.039000001 0.11384 0.0343602 4290647119
-0.0385 0.11384 0.0343602 4290647119
-0.037999999 0.113833 0.034233101 4290647119
-0.033500001 0.113827 0.034106001 4290647119
-0.033 0.113827 0.034106001 4290647119
-0.032499999 0.113833 0.034233101 4290647119
-0.032000002 0.11384 0.0343602 4290647119
-0.031500001 0.113847 0.034487199 4290647119
-0.030999999 0.113847 0.034487199 4290647119
0.025 0.11384 0.0343602 4290647119
0.0255 0.113833 0.034233101 4290647119
-0.053750001 0.114559 0.034488201 4290647119
-0.05325 0.114559 0.034488201 4290647119
-0.052749999 0.114553 0.034361199 4290647119
-0.052250002 0.114553 0.034361199 4290647119
-0.051750001 0.114546 0.034234099 4290647119
-0.05125 0.114546 0.034234099 4290647119
-0.050749999 0.114546 0.034234099 4290647119
-0.050250001 0.114546 0.034234099 4290647119
-0.04975 0.114546 0.034234099 4290647119
-0.049249999 0.114546 0.034234099 4290647119
-0.048749998 0.114539 0.034107 4290647119
-0.048250001 0.114539 0.034107 4290647119
-0.042750001 0.114539 0.034107 4290647119
-0.04225 0.114539 0.034107 4290647119
-0.041749999 0.114539 0.034107 4290647119
-0.041250002 0.114539 0.034107 4290647119
-0.040750001 0.114539 0.034107 4290647119
-0.04025 0.114539 0.034107 4290647119
-0.039749999 0.114539 0.034107 4290647119
-0.03025 0.114539 0.034107 4290647119
-0.029750001 0.114546 0.034234099 4290647119
-0.02925 0.114546 0.034234099 4290647119
-0.028750001 0.114546 0.034234099 4290647119
-0.02825 0.114546 0.034234099 4290647119
-0.02775 0.114546 0.034234099 4290647119
-0.027249999 0.114553 0.034361199 4290647119
-0.02675 0.114546 0.034234099 4290647119
-0.026249999 0.114546 0.034234099 4290647119
-0.02575 0.114559 0.034488201 4290647119
0.02375 0.114559 0.034488201 4290647119
0.024250001 0.114553 0.034361199 4290647119
-0.054000001 0.115265 0.0343621 4290647119
-0.0535 0.115258 0.034235101 4290647119
-0.052999999 0.115252 0.034108002 4290647119
-0.025 0.115252 0.034108002 4290647119
-0.024499999 0.115272 0.0344892 4290647119
0.023499999 0.115258 0.034235101 4290647119
-0.053750001 0.115978 0.034363098 4290647119
-0.024250001 0.115964 0.034109 4290647119
-0.02375 0.115984 0.034490202 4290647119
0.02225 0.115984 0.034490202 4290647119
0.02275 0.115971 0.0342361 4290647119
-0.0535 0.11669 0.034364101 4290647119
-0.023499999 0.116684 0.034237102 4290647119
0.022 0.11669 0.034364101 4290647119
-0.05325 0.117409 0.034492198 4290647119
-0.02275 0.117396 0.0342381 4290647119
-0.02225 0.117409 0.034492198 4290647119
0.02125 0.117403 0.034365099 4290647119
0.021749999 0.11739 0.034111001 4290647119
-0.022 0.118102 0.034111999 4290647119
-0.021500001 0.118109 0.034239002 4290647119
-0.021 0.118121 0.0344931 4290647119
0.020750001 0.1181085 0.03423905 4290647119
-0.02025 0.118821 0.03424 4290647119
0.01925 0.118834 0.034494098 4290647119
0.019750001 0.118827 0.034367099 4290647119
-0.052000001 0.119528 0.034113999 4290647119
-0.018999999 0.119534 0.034240998 4290647119
-0.0185 0.119546 0.0344951 4290647119
0.017250001 0.119543 0.034431599 4290647119
0.017999999 0.119534 0.034240998 4290647119
0.0185 0.119528 0.034113999 4290647119
-0.051750001 0.120246 0.034242 4290647119
-0.017750001 0.12024 0.034115002 4290647119
-0.01725 0.120252 0.0343691 4290647119
0.01525 0.120252 0.0343691 4290647119
0.01575 0.120246 0.034242 4290647119
0.016249999 0.12024 0.034115002 4290647119
-0.0515 0.120959 0.034242999 4290647119
-0.0155 0.120953 0.034116 4290647119
-0.015 0.120971 0.034497101 4290647119
0.01425 0.120959 0.034243047 4290647119
-0.05125 0.121665 0.034116998 4290647119
-0.01425 0.121665 0.034116998 4290647119
-0.01375 0.121671 0.034244001 4290647119
-0.01325 0.121683 0.034498099 4290647119
0.01175 0.121683 0.034498099 4290647119
0.01225 0.121683 0.034498099 4290647119
0.01275 0.121677 0.0343711 4290647119
0.01325 0.121671 0.034244001 4290647119
-0.0515 0.12239 0.034372099 4290647119
-0.012 0.122384 0.034244999 4290647119
-0.0115 0.122384 0.034244999 4290647119
-0.011 0.122396 0.034499101 4290647119
0.011 0.12239 0.034372099 4290647119
0.0115 0.122378 0.034118 4290647119
-0.05125 0.123103 0.0342438 4290647119
-0.0097500002 0.123097 0.034116801 4290647119
-0.0092500001 0.123103 0.0342438 4290647119
-0.00875 0.123109 0.034370899 4290647119
-0.00825 0.123114 0.034497801 4290647119
0.00125 0.123114 0.034497801 4290647119
0.0017500001 0.123114 0.034497801 4290647119
0.0022499999 0.123109 0.034370899 4290647119
0.00275 0.123103 0.0342438 4290647119
0.0032500001 0.123109 0.034370899 4290647119
0.0037499999 0.123109 0.034370899 4290647119
0.0042500002 0.123109 0.034370899 4290647119
0.0047499998 0.123114 0.034497801 4290647119
0.0052499999 0.123114 0.034497801 4290647119
0.00575 0.123114 0.034497801 4290647119
0.0062500001 0.123114 0.034497801 4290647119
0.0067500002 0.123114 0.034497801 4290647119
0.0072499998 0.123114 0.034497801 4290647119
0.00875 0.123114 0.034497801 4290647119
0.0092500001 0.123109 0.034370899 4290647119
0.0097500002 0.123103 0.0342438 4290647119
-0.0515 0.123833 0.034496699 4290647119
-0.0070000002 0.123816 0.034115601 4290647119
-0.0065000001 0.123816 0.034115601 4290647119
-0.0060000001 0.123822 0.0342426 4290647119
-0.0055 0.123827 0.034369599 4290647119
-0.0049999999 0.123827 0.034369599 4290647119
-0.0044999998 0.123827 0.034369599 4290647119
-0.0040000002 0.123827 0.034369599 4290647119
-0.0035000001 0.123827 0.034369599 4290647119
-0.003 0.123827 0.034369599 4290647119
-0.0024999999 0.123822 0.0342426 4290647119
-0.0020000001 0.123816 0.034115601 4290647119
-0.0015 0.123816 0.034115601 4290647119
-0.05125 0.124535 0.034114402 4290647119
-0.0515 0.12525401 0.034113199 4290647119
-0.051750001 0.12597799 0.034239002 4290647119
-0.052000001 0.12670299 0.034364801 4290647119
-0.052250002 0.12742101 0.034363601 4290647119
-0.052499998 0.12814599 0.034489401 4290647119
-0.052749999 0.12886401 0.034488201 4290647119
-0.052999999 0.129583 0.034487002 4290647119
-0.05325 0.13029701 0.034358799 4290647119
-0.054000001 0.13102099 0.034484599 4290647119
-0.0535 0.131006 0.034103598 4290647119
-0.054249998 0.131734 0.0343564 4290647119
-0.054499999 0.132443 0.034101199 4290647119
-0.05525 0.13317201 0.034354001 4290647119
-0.056000002 0.13389599 0.034479801 4290647119
-0.05675 0.13461401 0.034478601 4290647119
-0.056249999 0.1346 0.034097601 4290647119
-0.057 0.135324 0.0342234 4290647119
-0.058249999 0.136052 0.034476198 4290647119
-0.057750002 0.136043 0.034222201 4290647119
-0.059 0.136766 0.034348 4290647119
-0.060249999 0.137485 0.0343468 4290647119
-0.059749998 0.137481 0.034219801 4290647119
-0.061000001 0.138208 0.034472499 4290647119
-0.0605 0.13819499 0.034091599 4290647119
-0.089749999 0.138918 0.034217399 4290647119
-0.06075 0.138914 0.0340904 4290647119
-0.061000001 0.13964599 0.0344701 4290647119
-0.059999999 0.14107899 0.034340799 4290647119
-0.088249996 0.14323901 0.034464099 4290647119
-0.088 0.143951 0.034209002 4290647119
-0.087750003 0.144666 0.0340808 4290647119
-0.086999997 0.14539599 0.0344605 4290647119
-0.086750001 0.146107 0.034205399 4290647119
-0.086000003 0.146833 0.034458101 4290647119
-0.085249998 0.147552 0.034456901 4290647119
-0.058499999 0.148267 0.034328699 4290647119
-0.083750002 0.148986 0.0343275 4290647119
-0.082500003 0.14970499 0.0343263 4290647119
-0.058499999 0.14970499 0.0343263 4290647119
-0.081749998 0.150417 0.0340712 4290647119
-0.081249997 0.150427 0.034452099 4290647119
-0.05875 0.150424 0.0343251 4290647119
-0.079999998 0.15114599 0.0344509 4290647119
-0.059 0.15113901 0.034196999 4290647119
-0.078249998 0.151861 0.034322701 4290647119
-0.060249999 0.15186401 0.0344497 4290647119
-0.059749998 0.15185501 0.034068801 4290647119
-0.076499999 0.152574 0.034067601 4290647119
-0.075999998 0.152574 0.034067601 4290647119
-0.075499997 0.152577 0.0341946 4290647119
-0.061999999 0.152583 0.034448501 4290647119
-0.061500002 0.15257999 0.034321502 4290647119
-0.061000001 0.152574 0.034067601 4290647119
-0.070749998 0.153293 0.034066401 4290647119
-0.069250003 0.153293 0.034066401 4290647119
-0.06825 0.153293 0.034066401 4290647119
-0.067749999 0.15329599 0.0341934 4290647119
-0.066749997 0.153293 0.034066401 4290647119
-0.066249996 0.15329599 0.0341934 4290647119
-0.065750003 0.15329599 0.0341934 4290647119
-0.065250002 0.15329599 0.0341934 4290647119
-0.064750001 0.153293 0.034066401 4290647119
0.026000001 0.041613501 0.0348433 4290647119
0.02675 0.042313699 0.034715202 4290647119
-0.065499999 0.043052699 0.034967501 4290647119
-0.065250002 0.043727301 0.0345858 4290647119
0.02775 0.043765701 0.0349661 4290647119
-0.064499997 0.044440702 0.0345845 4290647119
0.0285 0.044440702 0.0345845 4290647119
-0.063749999 0.045179199 0.034836698 4290647119
-0.063249998 0.0451666 0.034710001 4290647119
0.028750001 0.045179199 0.034836698 4290647119
0.029999999 0.047293901 0.034579299 4290647119
0.03025 0.048031799 0.034831502 4290647119
0.0305 0.048757199 0.034956899 4290647119
-0.05325 0.049446002 0.0347021 4290647119
0.03125 0.049433801 0.034575399 4290647119
-0.0515 0.050171301 0.034827501 4290647119
0.031500001 0.050171301 0.034827501 4290647119
0.031750001 0.050896399 0.034952901 4290647119
-0.050000001 0.051609501 0.034951601 4290647119
0.032499999 0.051573701 0.034571499 4290647119
-0.04975 0.052278001 0.034571599 4290647119
0.032749999 0.052301802 0.034825001 4290647119
-0.0495 0.0529822 0.0345718 4290647119
-0.049249999 0.053710099 0.034825299 4290647119
0.033750001 0.053698301 0.034698602 4290647119
0.034000002 0.054426 0.034952201 4290647119
-0.049249999 0.055106699 0.034698799 4290647119
0.03475 0.055094998 0.034572098 4290647119
-0.048999999 0.055834301 0.034952499 4290647119
0.035 0.0558226 0.034825701 4290647119
-0.049249999 0.056503501 0.0345723 4290647119
-0.048999999 0.057230901 0.034825999 4290647119
-0.049249999 0.057923499 0.034699298 4290647119
-0.048999999 0.058650699 0.034953099 4290647119
0.036499999 0.058627699 0.034699399 4290647119
-0.049249999 0.059331901 0.0346996 4290647119
0.03675 0.059354901 0.034953199 4290647119
-0.048999999 0.060059 0.0349533 4290647119
0.037 0.060059 0.0349533 4290647119
-0.049249999 0.0607403 0.034699801 4290647119
0.037250001 0.060763098 0.034953501 4290647119
0.037500001 0.061455902 0.0348268 4290647119
0.037749998 0.062148701 0.034700099 4290647119
-0.0495 0.062875502 0.0349539 4290647119
0.037999999 0.062841699 0.034573302 4290647119
-0.050250001 0.063545898 0.034573399 4290647119
-0.050999999 0.064250201 0.034573499 4290647119
-0.050500002 0.064283699 0.034954201 4290647119
-0.05325 0.0649544 0.0345736 4290647119
-0.052749999 0.064965598 0.034700599 4290647119
0.038249999 0.064987898 0.034954399 4290647119
-0.056000002 0.065669797 0.034700699 4290647119
-0.055500001 0.065680899 0.034827601 4290647119
0.0385 0.065658703 0.0345737 4290647119
-0.059250001 0.066362903 0.034573901 4290647119
-0.05875 0.066362903 0.034573901 4290647119
-0.058249999 0.066385001 0.034827702 4290647119
-0.061500002 0.067067198 0.034573998 4290647119
-0.061000001 0.067078203 0.0347009 4290647119
-0.0605 0.067100197 0.034954801 4290647119
0.0385 0.0670892 0.034827899 4290647119
-0.063249998 0.067782402 0.034701001 4290647119
-0.062749997 0.067804299 0.034954999 4290647119
0.038249999 0.067804299 0.034954999 4290647119
0.03875 0.067771398 0.034574099 4290647119
-0.064999998 0.068475701 0.034574199 4290647119
-0.064499997 0.068497501 0.0348281 4290647119
0.0385 0.068486601 0.034701198 4290647119
-0.066249996 0.0691799 0.0345743 4290647119
-0.065750003 0.0692017 0.034828302 4290647119
0.038249999 0.069212601 0.0349553 4290647119
-0.067500003 0.069884203 0.034574401 4290647119
-0.067000002 0.069905899 0.034828398 4290647119
0.0385 0.069884203 0.034574401 4290647119
-0.06825 0.070610002 0.0348286 4290647119
0.038249999 0.070610002 0.0348286 4290647119
-0.07 0.071292698 0.034574602 4290647119
-0.069499999 0.071324997 0.034955699 4290647119
0.0385 0.071292698 0.034574602 4290647119
-0.070749998 0.0720184 0.034828801 4290647119
0.038249999 0.0720184 0.034828801 4290647119
-0.071500003 0.072722502 0.034828998 4290647119
0.0385 0.072701201 0.0345749 4290647119
-0.072250001 0.073437303 0.034956101 4290647119
0.038249999 0.073437303 0.034956101 4290647119
-0.072999999 0.0741309 0.034829199 4290647119
0.0385 0.074120298 0.0347021 4290647119
-0.073749997 0.074813902 0.034575202 4290647119
-0.074000001 0.075539201 0.034829501 4290647119
0.0385 0.075539201 0.034829501 4290647119
-0.074749999 0.076222397 0.034575399 4290647119
0.03875 0.076232903 0.034702498 4290647119
-0.075000003 0.076937102 0.034702599 4290647119
0.039000001 0.076926596 0.0345755 4290647119
-0.07525 0.077662103 0.034956999 4290647119
0.03875 0.077662103 0.034956999 4290647119
-0.075999998 0.0783455 0.034702901 4290647119
0.039000001 0.078355797 0.03483 4290647119
-0.076750003 0.079039402 0.034575801 4290647119
-0.076250002 0.0790703 0.034957301 4290647119
-0.077 0.079764202 0.034830298 4290647119
0.039000001 0.079764202 0.034830298 4290647119
-0.077749997 0.080468297 0.034830399 4290647119
-0.078500003 0.081152096 0.0345762 4290647119
-0.078000002 0.081182703 0.0349578 4290647119
0.039000001 0.081172504 0.0348306 4290647119
-0.078749999 0.081866503 0.034703501 4290647119
-0.079000004 0.0825909 0.034958001 4290647119
0.039000001 0.082580797 0.034830801 4290647119
-0.07925 0.083295003 0.034958199 4290647119
-0.079499997 0.083989203 0.034831099 4290647119
0.039000001 0.0839791 0.034703899 4290647119
-0.079750001 0.084683299 0.034704 4290647119
0.03875 0.084703296 0.0349585 4290647119
-0.079999998 0.085377596 0.0345768 4290647119
0.03875 0.086091802 0.034704201 4290647119
-0.079999998 0.086796001 0.034704398 4290647119
0.0385 0.0868157 0.034958899 4290647119
0.03875 0.087508202 0.0347053 4290647119
-0.079999998 0.088220403 0.034706298 4290647119
0.0385 0.088239796 0.0349609 4290647119
-0.079999998 0.089644901 0.034708299 4290647119
0.0385 0.089654401 0.034835499 4290647119
-0.079750001 0.090375997 0.034963701 4290647119
-0.079999998 0.091059998 0.034582902 4290647119
-0.079499997 0.091088101 0.034964699 4290647119
0.0385 0.091059998 0.034582902 4290647119
-0.079750001 0.091781601 0.034711201 4290647119
0.038249999 0.0917909 0.034838401 4290647119
-0.079499997 0.092502996 0.034839399 4290647119
0.037999999 0.092502996 0.034839399 4290647119
-0.079750001 0.093196899 0.034585901 4290647119
-0.079499997 0.093927301 0.034841299 4290647119
-0.079750001 0.094621502 0.034587801 4290647119
-0.07925 0.094648398 0.034969501 4290647119
0.037250001 0.094648398 0.034969501 4290647119
-0.079499997 0.095351599 0.0348433 4290647119
0.037 0.0953338 0.034588799 4290647119
-0.079750001 0.096046098 0.034589801 4290647119
-0.07925 0.096072599 0.034971502 4290647119
-0.079499997 0.096767202 0.034717999 4290647119
-0.07925 0.097488098 0.034846202 4290647119
-0.079000004 0.098200202 0.0348472 4290647119
0.035999998 0.098183103 0.034592699 4290647119
-0.078749999 0.098903798 0.034720901 4290647119
-0.078500003 0.099616103 0.0347219 4290647119
0.035 0.099632896 0.0349763 4290647119
-0.078249998 0.10032 0.034595702 4290647119
0.03475 0.100337 0.034850098 4290647119
-0.078000002 0.101041 0.0347239 4290647119
0.034499999 0.101041 0.0347239 4290647119
-0.077749997 0.101745 0.034597699 4290647119
0.033750001 0.101769 0.034979202 4290647119
-0.077500001 0.102457 0.0345986 4290647119
0.033500001 0.102473 0.034853 4290647119
-0.077249996 0.103169 0.034599598 4290647119
0.03325 0.103169 0.034599598 4290647119
-0.077 0.103889 0.034727801 4290647119
0.032499999 0.103905 0.0349821 4290647119
-0.076750003 0.104602 0.034728698 4290647119
0.032249998 0.10461 0.034855898 4290647119
-0.076499999 0.105322 0.034856901 4290647119
0.032000002 0.105314 0.034729701 4290647119
-0.076750003 0.106026 0.034730699 4290647119
0.03125 0.106042 0.034984998 4290647119
0.031750001 0.106026 0.034730699 4290647119
0.030999999 0.106754 0.0349859 4290647119
0.030750001 0.107458 0.034859799 4290647119
0.0305 0.108163 0.034733601 4290647119
0.029750001 0.10889 0.034988798 4290647119
0.0295 0.109587 0.034735601 4290647119
0.028750001 0.110307 0.034863599 4290647119
0.028250001 0.111012 0.034737501 4290647119
0.02675 0.111738 0.034992699 4290647119
0.027249999 0.111724 0.0347385 4290647119
-0.037500001 0.11245 0.0349936 4290647119
-0.037 0.112443 0.034866501 4290647119
-0.036499999 0.112443 0.034866501 4290647119
-0.035999998 0.112443 0.034866501 4290647119
-0.035500001 0.112443 0.034866501 4290647119
-0.035 0.112436 0.034739401 4290647119
-0.034499999 0.112443 0.034866501 4290647119
-0.034000002 0.11245 0.0349936 4290647119
-0.033500001 0.11245 0.0349936 4290647119
0.026000001 0.112443 0.034866501 4290647119
0.0265 0.112436 0.034739401 4290647119
-0.04025 0.113162 0.034994598 4290647119
-0.039749999 0.113162 0.034994598 4290647119
-0.039250001 0.113155 0.034867499 4290647119
-0.03875 0.113155 0.034867499 4290647119
-0.038249999 0.113148 0.0347404 4290647119
-0.037749998 0.113142 0.0346133 4290647119
-0.032749999 0.113148 0.0347404 4290647119
-0.032249998 0.113148 0.0347404 4290647119
-0.031750001 0.113155 0.034867499 4290647119
-0.03125 0.113155 0.034867499 4290647119
-0.030750001 0.113162 0.034994598 4290647119
0.02475 0.113162 0.034994598 4290647119
0.025250001 0.113148 0.0347404 4290647119
-0.054000001 0.113874 0.034995601 4290647119
-0.0535 0.113874 0.034995601 4290647119
-0.052999999 0.113867 0.034868501 4290647119
-0.052499998 0.113867 0.034868501 4290647119
-0.052000001 0.113861 0.034741402 4290647119
-0.0515 0.113861 0.034741402 4290647119
-0.050999999 0.113861 0.034741402 4290647119
-0.050500002 0.113854 0.034614298 4290647119
-0.050000001 0.113854 0.034614298 4290647119
-0.0495 0.113861 0.034741402 4290647119
-0.048999999 0.113861 0.034741402 4290647119
-0.048500001 0.113854 0.034614298 4290647119
-0.048 0.113854 0.034614298 4290647119
-0.047499999 0.113854 0.034614298 4290647119
-0.044500001 0.113854 0.034614298 4290647119
-0.044 0.113854 0.034614298 4290647119
-0.043499999 0.113854 0.034614298 4290647119
-0.043000001 0.113854 0.034614298 4290647119
-0.0425 0.113854 0.034614298 4290647119
-0.041999999 0.113854 0.034614298 4290647119
-0.041499998 0.113854 0.034614298 4290647119
-0.041000001 0.113854 0.034614298 4290647119
-0.0405 0.113854 0.034614298 4290647119
-0.0305 0.113854 0.034614298 4290647119
-0.029999999 0.113861 0.034741402 4290647119
-0.0295 0.113861 0.034741402 4290647119
-0.028999999 0.113861 0.034741402 4290647119
-0.0285 0.113867 0.034868501 4290647119
-0.028000001 0.113867 0.034868501 4290647119
-0.0275 0.113874 0.034995601 4290647119
-0.027000001 0.113874 0.034995601 4290647119
0.024 0.113867 0.034868501 4290647119
0.024499999 0.113854 0.034614298 4290647119
-0.054749999 0.11458 0.0348695 4290647119
-0.054249998 0.114573 0.0347424 4290647119
-0.025250001 0.114566 0.034615301 4290647119
-0.02475 0.11458 0.0348695 4290647119
0.02275 0.114586 0.034996498 4290647119
0.023250001 0.114573 0.0347424 4290647119
-0.055 0.115298 0.0349975 4290647119
-0.054499999 0.115278 0.034616299 4290647119
-0.024 0.115292 0.034870401 4290647119
0.022 0.115298 0.0349975 4290647119
0.022750001 0.1152815 0.034679849 4290647119
-0.054249998 0.115991 0.034617301 4290647119
0.021749999 0.115997 0.0347443 4290647119
-0.054749999 0.116011 0.034998499 4290647119
-0.023250001 0.116011 0.034998499 4290647119
0.02125 0.116011 0.034998499 4290647119
-0.054000001 0.11671 0.034745298 4290647119
-0.023 0.116703 0.034618199 4290647119
-0.022500001 0.116716 0.034872402 4290647119
0.021 0.116716 0.034872402 4290647119
0.021500001 0.116703 0.034618199 4290647119
-0.053750001 0.117428 0.034873299 4290647119
-0.021749999 0.117422 0.0347463 4290647119
0.02025 0.117428 0.034873299 4290647119
0.020749999 0.117415 0.034619201 4290647119
-0.052999999 0.118134 0.034747299 4290647119
-0.020500001 0.118134 0.034747299 4290647119
0.019749999 0.118134 0.03474725 4290647119
-0.052749999 0.11884 0.034621201 4290647119
-0.019750001 0.11884 0.034621201 4290647119
-0.01925 0.118846 0.0347482 4290647119
-0.018750001 0.118853 0.0348753 4290647119
0.01725 0.118853 0.0348753 4290647119
0.017750001 0.118853 0.0348753 4290647119
0.01825 0.118846 0.0347482 4290647119
0.018750001 0.11884 0.034621201 4290647119
-0.052499998 0.119558 0.034749199 4290647119
-0.017999999 0.119552 0.0346222 4290647119
-0.0175 0.119565 0.034876201 4290647119
0.0155 0.119565 0.034876201 4290647119
0.016249999 0.119555 0.034685701 4290647119
-0.052250002 0.120277 0.0348772 4290647119
-0.01675 0.120265 0.034623101 4290647119
-0.016249999 0.120271 0.034750201 4290647119
-0.01575 0.120277 0.0348772 4290647119
0.01375 0.120277 0.0348772 4290647119
0.01425 0.120271 0.034750201 4290647119
0.01475 0.120265 0.034623101 4290647119
-0.052000001 0.120983 0.034751099 4290647119
-0.0145 0.120983 0.034751099 4290647119
-0.014 0.120989 0.034878202 4290647119
0.0125 0.120989 0.034878202 4290647119
0.013 0.120983 0.034751099 4290647119
0.0135 0.120977 0.0346241 4290647119
-0.051750001 0.121689 0.034625102 4290647119
-0.01275 0.121689 0.034625102 4290647119
-0.01225 0.121701 0.0348792 4290647119
0.01125 0.121695 0.034752101 4290647119
-0.0105 0.122402 0.0346261 4290647119
-0.0099999998 0.122407 0.034753099 4290647119
-0.0094999997 0.122413 0.034880102 4290647119
0.003 0.122413 0.034880102 4290647119
0.0035000001 0.122407 0.034753099 4290647119
0.0042500002 0.122413 0.034880102 4290647119
0.0049999999 0.122413 0.034880102 4290647119
0.0099999998 0.122407 0.034753099 4290647119
0.0105 0.122402 0.0346261 4290647119
-0.051750001 0.123132 0.034878898 4290647119
-0.0077499999 0.12312 0.034624901 4290647119
-0.0072499998 0.123126 0.0347519 4290647119
-0.0067500002 0.123132 0.034878898 4290647119
-0.0062500001 0.123132 0.034878898 4290647119
0.00025000001 0.123132 0.034878898 4290647119
0.00075000001 0.123126 0.0347519 4290647119
0.0077499999 0.12312 0.034624901 4290647119
0.00825 0.12312 0.034624901 4290647119
-0.051750001 0.124558 0.034622502 4290647119
-0.052000001 0.125287 0.0348753 4290647119
-0.052250002 0.12600601 0.0348741 4290647119
-0.052499998 0.12673 0.0349999 4290647119
-0.052749999 0.12744799 0.034998599 4290647119
-0.052999999 0.128162 0.034870401 4290647119
-0.05325 0.12887999 0.034869201 4290647119
-0.0535 0.129599 0.034867998 4290647119
-0.053750001 0.130312 0.0347398 4290647119
-0.054499999 0.13104101 0.034992602 4290647119
-0.054749999 0.131754 0.0348644 4290647119
-0.055 0.13246299 0.034609199 4290647119
-0.055750001 0.133196 0.034988899 4290647119
-0.056499999 0.13391501 0.034987699 4290647119
-0.057250001 0.134633 0.0349865 4290647119
-0.057999998 0.135352 0.0349853 4290647119
-0.057500001 0.13533799 0.0346044 4290647119
-0.05875 0.13606501 0.034857102 4290647119
-0.059999999 0.136784 0.034855898 4290647119
-0.059500001 0.136775 0.034601901 4290647119
-0.06075 0.13749801 0.0347277 4290647119
-0.061250001 0.13750701 0.034981702 4290647119
-0.061500002 0.138225 0.034980498 4290647119
-0.061250001 0.13893101 0.034598298 4290647119
-0.06075 0.140377 0.034849901 4290647119
-0.088749997 0.14181399 0.034847401 4290647119
-0.059749998 0.141818 0.0349744 4290647119
-0.088500001 0.142528 0.0347193 4290647119
-0.059500001 0.142536 0.0349732 4290647119
-0.087250002 0.144688 0.034842599 4290647119
-0.059 0.145403 0.034714401 4290647119
-0.08625 0.146129 0.034967098 4290647119
-0.085500002 0.14684699 0.034965899 4290647119
-0.05875 0.147562 0.034837801 4290647119
-0.0845 0.148274 0.0345826 4290647119
-0.083250001 0.14899901 0.034835301 4290647119
-0.05875 0.14899901 0.034835301 4290647119
-0.082000002 0.149721 0.034961101 4290647119
-0.059 0.149721 0.034961101 4290647119
-0.080750003 0.15043899 0.034959901 4290647119
-0.059250001 0.150436 0.034832899 4290647119
-0.079499997 0.151149 0.034577802 4290647119
-0.079000004 0.151158 0.034958601 4290647119
-0.059999999 0.15115499 0.034831699 4290647119
-0.059500001 0.151149 0.034577802 4290647119
-0.077749997 0.15187 0.034703601 4290647119
-0.077249996 0.15187301 0.034830499 4290647119
-0.061250001 0.151876 0.034957401 4290647119
-0.06075 0.151867 0.034576599 4290647119
-0.075000003 0.152586 0.034575399 4290647119
-0.074500002 0.152592 0.0348293 4290647119
-0.074000001 0.152592 0.0348293 4290647119
-0.0735 0.152595 0.034956198 4290647119
-0.072999999 0.152595 0.034956198 4290647119
-0.072499998 0.152592 0.0348293 4290647119
-0.071999997 0.152595 0.034956198 4290647119
-0.064000003 0.152595 0.034956198 4290647119
-0.063500002 0.152592 0.0348293 4290647119
-0.063000001 0.152592 0.0348293 4290647119
-0.0625 0.15258899 0.034702301 4290647119
-0.066749997 0.039540499 0.035481401 4290647119
-0.066249996 0.040966 0.0354787 4290647119
-0.066 0.041665699 0.035350502 4290647119
-0.065750003 0.042365499 0.0352224 4290647119
0.027000001 0.0430784 0.035220999 4290647119
-0.064750001 0.043778598 0.035092901 4290647119
-0.064000003 0.044516999 0.0353451 4290647119
0.028000001 0.0445043 0.035218399 4290647119
0.02825 0.0452425 0.035470501 4290647119
0.028999999 0.045930099 0.035215698 4290647119
0.02925 0.046668001 0.0354678 4290647119
0.0295 0.047380701 0.0354665 4290647119
0.030750001 0.049494602 0.035209 4290647119
-0.052749999 0.049506798 0.035335701 4290647119
-0.052250002 0.049518999 0.035462402 4290647119
-0.050999999 0.0502076 0.0352077 4290647119
0.030999999 0.050231699 0.035461001 4290647119
-0.050250001 0.0509445 0.035459701 4290647119
0.032000002 0.051633399 0.035204999 4290647119
-0.049249999 0.052361201 0.035458501 4290647119
-0.048999999 0.053065099 0.035458699 4290647119
0.033 0.053029601 0.0350786 4290647119
-0.048749998 0.0537691 0.0354589 4290647119
0.03325 0.0537691 0.0354589 4290647119
-0.048999999 0.054437801 0.035078902 4290647119
-0.048749998 0.055153601 0.0352058 4290647119
0.034249999 0.055165298 0.035332602 4290647119
-0.048500001 0.055881001 0.0354595 4290647119
0.034499999 0.055881001 0.0354595 4290647119
-0.048749998 0.056561701 0.035206199 4290647119
0.035250001 0.056561701 0.035206199 4290647119
-0.048500001 0.0572889 0.035459898 4290647119
-0.048749998 0.057969701 0.0352065 4290647119
-0.048749998 0.059389301 0.0353337 4290647119
-0.048749998 0.0607973 0.035333999 4290647119
-0.048999999 0.061489899 0.035207398 4290647119
-0.049249999 0.062182698 0.035080701 4290647119
-0.048999999 0.062920503 0.0354615 4290647119
0.037500001 0.062909298 0.035334598 4290647119
-0.04975 0.063590802 0.035080999 4290647119
0.037749998 0.063602 0.035207901 4290647119
-0.050000001 0.064328402 0.035461798 4290647119
0.037999999 0.064294897 0.0350811 4290647119
-0.052250002 0.064998999 0.035081301 4290647119
-0.051750001 0.065010101 0.035208199 4290647119
-0.05125 0.065010101 0.035208199 4290647119
-0.050749999 0.065021299 0.035335101 4290647119
-0.055 0.065703101 0.035081498 4290647119
-0.054499999 0.065725297 0.035335299 4290647119
0.037999999 0.065714203 0.0352084 4290647119
-0.057750002 0.066407204 0.035081599 4290647119
-0.057250001 0.066429302 0.0353355 4290647119
-0.05675 0.066440299 0.035462402 4290647119
0.038249999 0.066407204 0.035081599 4290647119
-0.059999999 0.067111202 0.0350818 4290647119
-0.059500001 0.0671333 0.035335701 4290647119
-0.059 0.067144297 0.035462599 4290647119
0.037999999 0.0671333 0.035335701 4290647119
-0.062249999 0.067815296 0.035081901 4290647119
-0.061749998 0.067837298 0.035335898 4290647119
-0.061250001 0.067848198 0.0354628 4290647119
-0.064000003 0.068519399 0.035082102 4290647119
-0.063500002 0.068541303 0.035335999 4290647119
0.037999999 0.068541303 0.035335999 4290647119
-0.065250002 0.069234401 0.035209201 4290647119
-0.064750001 0.069256097 0.035463199 4290647119
-0.066500001 0.069927603 0.0350824 4290647119
-0.066 0.069960102 0.0354634 4290647119
0.037999999 0.069938399 0.035209399 4290647119
-0.067749999 0.070642397 0.0352096 4290647119
-0.067249998 0.0706641 0.035463601 4290647119
0.037749998 0.0706641 0.035463601 4290647119
-0.068999998 0.071357198 0.0353368 4290647119
-0.068499997 0.071368001 0.035463799 4290647119
0.037999999 0.071335703 0.035082702 4290647119
-0.070249997 0.072039798 0.035082899 4290647119
-0.069750004 0.072071999 0.035464 4290647119
0.037749998 0.072061203 0.035336901 4290647119
-0.071000002 0.072754599 0.035210099 4290647119
0.037999999 0.0727439 0.035083 4290647119
-0.07175 0.073469304 0.035337299 4290647119
0.037749998 0.073479898 0.035464399 4290647119
-0.072499998 0.074173197 0.0353375 4290647119
0.037999999 0.074173197 0.0353375 4290647119
-0.073250003 0.074856102 0.035083499 4290647119
0.038249999 0.074856102 0.035083499 4290647119
-0.0735 0.075591803 0.035464998 4290647119
-0.074249998 0.076264299 0.035083801 4290647119
-0.074500002 0.076989204 0.035338201 4290647119
0.0385 0.076978803 0.035211101 4290647119
-0.074749999 0.077703603 0.035465602 4290647119
-0.075499997 0.078386903 0.0352115 4290647119
0.0385 0.078386903 0.0352115 4290647119
0.03875 0.079080597 0.035084501 4290647119
-0.076499999 0.079805203 0.035339002 4290647119
0.0385 0.079815499 0.035466101 4290647119
-0.077249996 0.080499001 0.035211999 4290647119
0.03875 0.080499001 0.035211999 4290647119
-0.077500001 0.081223398 0.0354665 4290647119
0.0385 0.081213199 0.0353393 4290647119
-0.078249998 0.081907101 0.035212301 4290647119
0.03875 0.081896901 0.035085101 4290647119
-0.078500003 0.082621202 0.035339698 4290647119
0.0385 0.082611099 0.035212498 4290647119
-0.078749999 0.083335303 0.035467099 4290647119
0.038249999 0.083335303 0.035467099 4290647119
0.03875 0.083305098 0.035085399 4290647119
-0.079000004 0.084039196 0.035467301 4290647119
0.0385 0.084019199 0.0352128 4290647119
-0.07925 0.084743202 0.035467502 4290647119
0.038249999 0.084743202 0.035467502 4290647119
-0.079499997 0.085437201 0.035340399 4290647119
0.0385 0.0854173 0.035085902 4290647119
-0.079750001 0.086121403 0.035086099 4290647119
0.038249999 0.086141199 0.0353406 4290647119
-0.079499997 0.086845197 0.035340801 4290647119
-0.079750001 0.087537497 0.035087202 4290647119
0.038249999 0.087557003 0.035341699 4290647119
-0.079499997 0.088268898 0.035342701 4290647119
-0.079750001 0.088961497 0.035089102 4290647119
0.038249999 0.088980697 0.035343599 4290647119
-0.079499997 0.089683004 0.0352173 4290647119
0.037999999 0.0897021 0.035471901 4290647119
-0.07925 0.090413801 0.035472799 4290647119
0.038249999 0.090394899 0.035218298 4290647119
0.037999999 0.091116197 0.035346501 4290647119
-0.07925 0.091818698 0.035220198 4290647119
-0.079000004 0.092539899 0.0353484 4290647119
-0.07925 0.093233399 0.035094801 4290647119
-0.078749999 0.093260802 0.035476599 4290647119
0.037749998 0.093233399 0.035094801 4290647119
-0.079000004 0.093954504 0.035223 4290647119
0.037500001 0.093945399 0.0350958 4290647119
-0.078749999 0.094675399 0.035351198 4290647119
-0.079000004 0.095378302 0.035225 4290647119
-0.078749999 0.096098997 0.035353102 4290647119
-0.079000004 0.096793398 0.0350996 4290647119
-0.078500003 0.096819602 0.0354813 4290647119
0.035999998 0.096819602 0.0354813 4290647119
-0.078749999 0.097514004 0.035227802 4290647119
0.035750002 0.097531296 0.035482202 4290647119
-0.078500003 0.098225899 0.0352288 4290647119
0.035500001 0.098234497 0.035356 4290647119
-0.078249998 0.098937802 0.035229702 4290647119
0.035250001 0.098929301 0.035102502 4290647119
-0.078000002 0.099641301 0.0351035 4290647119
-0.077749997 0.100353 0.035104401 4290647119
0.034249999 0.10037 0.035358801 4290647119
-0.077500001 0.101065 0.0351054 4290647119
0.034000002 0.101065 0.0351054 4290647119
-0.077249996 0.101777 0.035106398 4290647119
0.03325 0.101802 0.035487901 4290647119
-0.077 0.102489 0.0351073 4290647119
0.033 0.102506 0.035361599 4290647119
-0.076750003 0.103201 0.035108302 4290647119
0.032249998 0.103225 0.035489801 4290647119
0.032749999 0.103201 0.035108302 4290647119
-0.076499999 0.103913 0.0351092 4290647119
0.032000002 0.103929 0.035363499 4290647119
-0.076250002 0.104625 0.035110202 4290647119
0.03125 0.104649 0.035491601 4290647119
0.031750001 0.104633 0.035237301 4290647119
-0.075999998 0.105353 0.035365399 4290647119
0.030999999 0.105353 0.035365399 4290647119
0.031500001 0.105337 0.035111099 4290647119
-0.076250002 0.106049 0.035112102 4290647119
0.030750001 0.106065 0.035366401 4290647119
-0.076499999 0.106761 0.0351131 4290647119
0.0305 0.106776 0.035367299 4290647119
-0.076750003 0.107473 0.035114001 4290647119
0.03025 0.107481 0.035241202 4290647119
-0.077 0.108185 0.035115 4290647119
0.029999999 0.108185 0.035115 4290647119
0.02925 0.108919 0.0354973 4290647119
0.028999999 0.109617 0.035243999 4290647119
0.02825 0.110328 0.035245001 4290647119
0.0275 0.111033 0.0351188 4290647119
-0.03675 0.111759 0.035374001 4290647119
-0.036249999 0.111759 0.035374001 4290647119
-0.035750002 0.111759 0.035374001 4290647119
-0.035250001 0.111759 0.035374001 4290647119
-0.03475 0.111759 0.035374001 4290647119
0.026249999 0.111752 0.035246901 4290647119
-0.039500002 0.112471 0.035374898 4290647119
-0.039000001 0.112464 0.035247799 4290647119
-0.0385 0.112464 0.035247799 4290647119
-0.037999999 0.112457 0.0351207 4290647119
-0.033 0.112457 0.0351207 4290647119
-0.032499999 0.112464 0.035247799 4290647119
-0.032000002 0.112471 0.035374898 4290647119
-0.031500001 0.112471 0.035374898 4290647119
-0.030999999 0.112471 0.035374898 4290647119
0.025 0.112464 0.035247799 4290647119
0.0255 0.112457 0.0351207 4290647119
-0.054749999 0.113183 0.035375901 4290647119
-0.054249998 0.113183 0.035375901 4290647119
-0.053750001 0.113183 0.035375901 4290647119
-0.05325 0.113183 0.035375901 4290647119
-0.052749999 0.113183 0.035375901 4290647119
-0.052250002 0.113183 0.035375901 4290647119
-0.051750001 0.113176 0.035248801 4290647119
-0.05125 0.113176 0.035248801 4290647119
-0.050749999 0.113176 0.035248801 4290647119
-0.050250001 0.113169 0.035121702 4290647119
-0.04975 0.113169 0.035121702 4290647119
-0.049249999 0.113169 0.035121702 4290647119
-0.048749998 0.113169 0.035121702 4290647119
-0.048250001 0.113169 0.035121702 4290647119
-0.04775 0.113169 0.035121702 4290647119
-0.047249999 0.113176 0.035248801 4290647119
-0.046750002 0.113169 0.035121702 4290647119
-0.046250001 0.113169 0.035121702 4290647119
-0.04575 0.113169 0.035121702 4290647119
-0.045249999 0.113169 0.035121702 4290647119
-0.044750001 0.113169 0.035121702 4290647119
-0.04425 0.113169 0.035121702 4290647119
-0.043749999 0.113169 0.035121702 4290647119
-0.043249998 0.113176 0.035248801 4290647119
-0.042750001 0.113169 0.035121702 4290647119
-0.04225 0.113169 0.035121702 4290647119
-0.041749999 0.113169 0.035121702 4290647119
-0.041250002 0.113169 0.035121702 4290647119
-0.040750001 0.113169 0.035121702 4290647119
-0.03025 0.113169 0.035121702 4290647119
-0.029750001 0.113176 0.035248801 4290647119
-0.02925 0.113176 0.035248801 4290647119
-0.028750001 0.113183 0.035375901 4290647119
-0.02825 0.113183 0.035375901 4290647119
0.02375 0.113183 0.035375901 4290647119
0.024250001 0.113176 0.035248801 4290647119
-0.055500001 0.113895 0.035376798 4290647119
-0.055 0.113888 0.035249699 4290647119
-0.054499999 0.113881 0.035122599 4290647119
-0.0265 0.113881 0.035122599 4290647119
-0.026000001 0.113881 0.035122599 4290647119
-0.0255 0.113888 0.035249699 4290647119
-0.025 0.113895 0.035376798 4290647119
0.022750001 0.1138915 0.035313249 4290647119
0.023499999 0.113881 0.035122599 4290647119
-0.055750001 0.114607 0.0353778 4290647119
-0.05525 0.114593 0.035123602 4290647119
-0.024250001 0.1146 0.035250701 4290647119
0.021749999 0.114607 0.0353778 4290647119
0.02225 0.114593 0.035123602 4290647119
-0.055500001 0.115318 0.035378698 4290647119
-0.023499999 0.115312 0.035251599 4290647119
0.021 0.115318 0.035378698 4290647119
0.021500001 0.115312 0.035251599 4290647119
-0.02275 0.116024 0.035252601 4290647119
0.020749999 0.116024 0.035252601 4290647119
-0.054499999 0.116736 0.035253499 4290647119
-0.022 0.116729 0.0351265 4290647119
0.02 0.116742 0.035380598 4290647119
0.020500001 0.116729 0.0351265 4290647119
-0.02125 0.117435 0.035000399 4290647119
-0.020749999 0.117448 0.035254501 4290647119
-0.02025 0.117454 0.0353815 4290647119
0.01925 0.117454 0.0353815 4290647119
0.019750001 0.117441 0.035127401 4290647119
-0.0535 0.118147 0.0350013 4290647119
-0.02 0.118153 0.0351284 4290647119
-0.0195 0.118159 0.035255499 4290647119
-0.018999999 0.118166 0.035382502 4290647119
0.017250001 0.1181625 0.035319 4290647119
0.017999999 0.118159 0.035255499 4290647119
