# .PCD v0.7 - Point Cloud Data file format
VERSION 0.7
FIELDS x y z rgb
SIZE 4 4 4 4
TYPE F F F U
COUNT 1 1 1 1
WIDTH 1026
HEIGHT 1
VIEWPOINT 0 0 0 1 0 0 0
POINTS 1026
DATA ascii
-0.089666665 0.091385037 0.019400233 4290647119
0.044500001 0.092704847 0.0176013 4290647119
-0.089527771 0.097869858 0.016843058 4290647119
0.04315909 0.097960047 0.016671091 4290647119
-0.08837501 0.10248393 0.017987406 4290647119
0.041732144 0.10176522 0.016432635 4290647119
-0.086631574 0.10725632 0.018006572 4290647119
0.038857143 0.10723314 0.018897271 4290647119
-0.092250004 0.114402 0.017906301 4290647119
-0.086750001 0.110079 0.01815035 4290647119
0.036583334 0.11112016 0.019550616 4290647119
-0.093374997 0.11700132 0.019309767 4290647119
-0.02775 0.12460699 0.019430738 4290647119
0.02675 0.122343 0.017604699 4290647119
-0.042683825 0.12735464 0.018132256 4290647119
-0.037702382 0.12706815 0.017840369 4290647119
-0.032625001 0.12607822 0.018120501 4290647119
-0.027444445 0.12555423 0.017035939 4290647119
-0.0229 0.12628825 0.01792971 4290647119
-0.018138887 0.12789077 0.018740434 4290647119
-0.0128125 0.12913474 0.019024499 4290647119
0.01375 0.12971 0.019754 4290647119
0.017041668 0.12810618 0.019057667 4290647119
-0.090875 0.1344225 0.019430101 4290647119
-0.046600003 0.13328539 0.018174391 4290647119
0.0023750002 0.13141489 0.016865958 4290647119
0.0072500003 0.13112979 0.018891288 4290647119
0.0115 0.13041651 0.019244999 4290647119
-0.091062501 0.1382575 0.019964499 4290647119
-0.050500002 0.13963099 0.019359468 4290647119
-0.048926469 0.13741219 0.017420411 4290647119
-0.092 0.142799 0.01992655 4290647119
-0.05128409 0.14269796 0.017664319 4290647119
-0.050000001 0.140531 0.017199701 4290647119
-0.052124999 0.14762889 0.01845989 4290647119
-0.090750001 0.15006199 0.0197262 4290647119
-0.088500001 0.15222999 0.019215399 4290647119
-0.052649997 0.1506086 0.018303581 4290647119
0.029166667 0.037154302 0.024152234 4290647119
0.032516666 0.0380315 0.0238217 4290647119
0.036727276 0.039244246 0.023270346 4290647119
0.039250001 0.040485449 0.0238747 4290647119
0.042453121 0.041934561 0.023524761 4290647119
0.0471875 0.044075355 0.022865519 4290647119
0.049027778 0.046006124 0.023877222 4290647119
0.052200001 0.048016783 0.022610316 4290647119
0.055124998 0.049172454 0.02057315 4290647119
0.053954545 0.05121294 0.023906009 4290647119
0.056330647 0.052787215 0.022467555 4290647119
-0.060749996 0.059464965 0.020493366 4290647119
-0.057218749 0.059340857 0.022071403 4290647119
-0.054104164 0.058735806 0.02223889 4290647119
0.057731252 0.057472013 0.022944549 4278190335
-0.070812501 0.064283103 0.020865876 4290647119
-0.067516126 0.063098975 0.022546554 4290647119
-0.062788457 0.061193507 0.022759803 4290647119
-0.058416657 0.06056885 0.024029901 4290647119
0.058461539 0.062557116 0.02277568 4278190335
-0.075750001 0.069691598 0.0240325 4290647119
-0.071549997 0.066156618 0.022445647 4290647119
-0.069666669 0.065703303 0.024291433 4290647119
0.0445625 0.0691934 0.024414176 4290647119
0.046887498 0.069242463 0.024160087 4290647119
0.052983336 0.069441013 0.024413902 4290647119
0.057305008 0.067487188 0.022595173 4290647119
-0.080499999 0.074582398 0.0232637 4290647119
-0.078450002 0.072128035 0.022708049 4290647119
0.044357147 0.072519287 0.02399266 4290647119
0.047098681 0.071456276 0.02175989 4290647119
0.052314103 0.07127808 0.022179974 4290647119
0.055774998 0.070658579 0.021236261 4290647119
-0.082202382 0.077189311 0.02256372 4290647119
0.044500005 0.07749778 0.024288626 4290647119
0.045555554 0.07752502 0.021719623 4290647119
-0.085527785 0.08287055 0.021626588 4290647119
-0.084849998 0.081079036 0.02127024 4290647119
0.0445625 0.082603246 0.0239686 4290647119
0.045333337 0.081786789 0.021854376 4290647119
-0.087133922 0.087348737 0.022901563 4290647119
0.044333331 0.087659292 0.023532191 4290647119
0.045062501 0.086705297 0.02185075 4290647119
-0.088475801 0.09248323 0.022703568 4290647119
0.043815792 0.09240526 0.023027198 4290647119
-0.088206902 0.097428977 0.02267093 4290647119
0.04252778 0.097241439 0.023002869 4290647119
-0.086999997 0.10239344 0.022291943 4290647119
-0.085000001 0.104715 0.0249393 4290647119
0.039625 0.104301 0.02404855 4290647119
0.040645834 0.10210825 0.022518426 4290647119
-0.085583337 0.10688167 0.021087667 4290647119
-0.084549993 0.10774408 0.023513073 4290647119
0.038113639 0.10765664 0.022761017 4290647119
0.033999998 0.1141436 0.023941079 4290647119
0.035708334 0.11168217 0.023194866 4290647119
-0.09375 0.119751 0.023952199 4290647119
0.0289375 0.11959299 0.024396526 4290647119
0.031711541 0.11698592 0.023946732 4290647119
-0.094340913 0.12302636 0.023884963 4290647119
-0.045499999 0.12434766 0.024503434 4290647119
-0.042803574 0.12411451 0.023522381 4290647119
-0.037625 0.12444166 0.023895713 4290647119
-0.032285713 0.12375536 0.022658266 4290647119
-0.02785 0.12305554 0.022303607 4290647119
-0.023010418 0.12417492 0.022646023 4290647119
-0.019749999 0.1248205 0.024269899 4290647119
0.023134615 0.12417661 0.023572208 4290647119
0.026553569 0.12172757 0.023329342 4290647119
-0.093794122 0.12766781 0.023074033 4290647119
-0.045791663 0.12803355 0.023129158 4290647119
-0.042849999 0.12627855 0.021098722 4290647119
-0.037736844 0.12576187 0.021350486 4290647119
-0.033500001 0.12537883 0.020458532 4290647119
-0.021524999 0.1256322 0.021271089 4290647119
-0.01762097 0.12673925 0.022671219 4290647119
-0.012624999 0.12840883 0.023451759 4290647119
-0.0079615377 0.12969056 0.02343723 4290647119
-0.0030000003 0.12990326 0.024564037 4290647119
0.0028749998 0.1299165 0.024897413 4290647119
0.0075000003 0.1298914 0.024275169 4290647119
0.01253409 0.12913027 0.022554751 4290647119
0.017725 0.12684581 0.022482377 4290647119
0.02096875 0.12574425 0.022601426 4290647119
-0.091916665 0.1323691 0.021711798 4290647119
-0.047413465 0.13259512 0.022841981 4290647119
-0.045000002 0.130447 0.020006999 4290647119
-0.001625 0.13048825 0.021054724 4290647119
0.0022499999 0.13055781 0.02281362 4290647119
0.0072500007 0.1304955 0.02123889 4290647119
0.01025 0.13045451 0.0201975 4290647119
-0.090525001 0.1375376 0.02122901 4290647119
-0.090000004 0.13777733 0.021859368 4290647119
-0.051276315 0.138448 0.022482207 4290647119
-0.049571428 0.13630471 0.021250699 4290647119
-0.091499992 0.14188614 0.020626171 4290647119
-0.052615382 0.14260346 0.022734808 4290647119
-0.090931825 0.14816728 0.023052735 4290647119
-0.089750007 0.14944249 0.023979951 4290647119
-0.053184208 0.14705001 0.022944368 4290647119
-0.09025 0.15009899 0.021249499 4290647119
-0.087962493 0.15148029 0.022834444 4290647119
-0.082909085 0.15402871 0.022859655 4290647119
-0.053687502 0.15179674 0.023944799 4290647119
-0.077749997 0.15560451 0.024129625 4290647119
-0.064750001 0.155967 0.024160801 4290647119
0.027934212 0.038539834 0.027371081 4290647119
0.031923078 0.039145429 0.025900222 4290647119
0.035750002 0.039929464 0.025460467 4290647119
0.029333333 0.04081155 0.029369833 4290647119
0.032648306 0.042180579 0.028428355 4290647119
0.037280001 0.042484209 0.027971005 4290647119
0.041787032 0.043608859 0.027095664 4290647119
0.045916665 0.044710334 0.025329066 4290647119
0.04345588 0.045922447 0.02875784 4290647119
0.047233697 0.047616724 0.027522106 4290647119
0.050607149 0.048996318 0.02574137 4290647119
-0.052472223 0.052853592 0.029010346 4290647119
0.049029414 0.051554427 0.029108996 4290647119
0.051947121 0.052760478 0.027412318 4290647119
0.055187501 0.054416172 0.025319375 4290647119
-0.052437499 0.057499155 0.028105894 4290647119
0.05284375 0.057261329 0.028678922 4290647119
0.055680554 0.058031067 0.025963644 4290647119
-0.066642858 0.064487413 0.025798002 4290647119
-0.062589996 0.06335336 0.027284468 4290647119
-0.057609998 0.06194596 0.027351603 4290647119
-0.053696427 0.061023649 0.028302711 4290647119
0.042349998 0.062660046 0.028907277 4290647119
0.047285713 0.063576184 0.029211015 4290647119
0.052579552 0.06247662 0.028650176 4290647119
0.055939395 0.062576272 0.026271818 4290647119
-0.07525 0.069864497 0.0260647 4290647119
-0.072421871 0.06865254 0.027907355 4290647119
-0.067911766 0.066165149 0.028010098 4290647119
-0.064750001 0.065214798 0.029496601 4290647119
0.042775862 0.06716495 0.027271392 4290647119
0.047537498 0.066787601 0.026863255 4290647119
0.052199226 0.066963017 0.02661895 4290647119
0.05552778 0.066361435 0.025532058 4290647119
-0.07721296 0.072846971 0.027280722 4290647119
-0.074083336 0.070588984 0.029049268 4290647119
0.04269531 0.072455987 0.027717933 4290647119
-0.081692308 0.078679197 0.028120063 4290647119
-0.078931816 0.075961322 0.028289117 4290647119
0.04281757 0.077490106 0.027710099 4290647119
-0.083514713 0.082468025 0.028174076 4290647119
0.042934217 0.082622178 0.027856881 4290647119
-0.085839279 0.088562608 0.02641682 4290647119
-0.084200002 0.087579653 0.028530717 4290647119
0.042527776 0.087719254 0.02758258 4290647119
-0.086249992 0.09264043 0.026836526 4290647119
-0.084562495 0.092628583 0.029161949 4290647119
0.041810811 0.09275043 0.027556829 4290647119
-0.086155169 0.097496003 0.026600678 4290647119
-0.084375001 0.098022848 0.029028038 4290647119
0.039388888 0.098905377 0.028785765 4290647119
0.040935185 0.097262368 0.026837422 4290647119
-0.085708342 0.10177042 0.02569654 4290647119
-0.083494328 0.10288233 0.028238731 4290647119
0.038320515 0.10284939 0.028065516 4290647119
0.0401875 0.1009825 0.025536075 4290647119
-0.082368746 0.10729305 0.027543809 4290647119
0.034218751 0.1093585 0.029190289 4290647119
0.036518749 0.10736305 0.027512178 4290647119
0.032906253 0.11285631 0.027706271 4290647119
0.035350002 0.1109606 0.026171461 4290647119
-0.046514705 0.11932594 0.029107235 4290647119
-0.043109376 0.11960462 0.029271144 4290647119
-0.032073528 0.11957905 0.029122602 4290647119
-0.028727274 0.11966973 0.029021537 4290647119
0.027732145 0.1182601 0.028044667 4290647119
0.03076786 0.11625429 0.02684927 4290647119
-0.093562499 0.12343988 0.025779963 4290647119
-0.046948865 0.1224585 0.027612245 4290647119
-0.042416666 0.12165288 0.026992282 4290647119
-0.037625 0.12174027 0.027979163 4290647119
-0.033081081 0.12150183 0.02686277 4290647119
-0.027129309 0.1210481 0.027257161 4290647119
-0.022680556 0.12228861 0.027780082 4290647119
-0.017879309 0.12408234 0.027864793 4290647119
0.018029999 0.12416022 0.028292341 4290647119
0.022481706 0.12262397 0.027542284 4290647119
0.025944447 0.120905 0.026396066 4290647119
-0.092544116 0.12780823 0.027444512 4290647119
-0.047515623 0.12745428 0.027675513 4290647119
-0.016107144 0.12582757 0.026019398 4290647119
-0.012625 0.12641446 0.02763347 4290647119
-0.0076511633 0.12789132 0.02758689 4290647119
-0.0025320514 0.12840323 0.027786735 4290647119
0.0023095235 0.12831692 0.027872449 4290647119
0.0073749996 0.12822524 0.027738631 4290647119
0.012423075 0.12716964 0.027967747 4290647119
0.01623684 0.12601037 0.027092572 4290647119
-0.091384612 0.13150385 0.027029714 4290647119
-0.050812501 0.13386625 0.028876113 4290647119
-0.048942305 0.13185248 0.02740531 4290647119
-0.052625 0.13722341 0.027969612 4290647119
-0.050000001 0.135024 0.0259693 4290647119
-0.090716667 0.14282173 0.027032686 4290647119
-0.089634612 0.14250723 0.028653856 4290647119
-0.055500001 0.14165024 0.029641699 4290647119
-0.053964287 0.14190152 0.027786557 4290647119
-0.090777777 0.14595345 0.025868321 4290647119
-0.08866667 0.14779077 0.027889242 4290647119
-0.055607144 0.14864428 0.029086601 4290647119
-0.054486111 0.14748183 0.02736841 4290647119
-0.086483337 0.15091734 0.02701192 4290647119
-0.082778849 0.15279189 0.027842045 4290647119
-0.077999994 0.15437084 0.028496118 4290647119
-0.074499995 0.15463451 0.0295578 4290647119
-0.0605 0.154634 0.02955775 4290647119
-0.056608688 0.15306626 0.028161114 4290647119
-0.054365382 0.15134345 0.026550345 4290647119
-0.076571427 0.15529129 0.026482999 4290647119
-0.072500005 0.15568726 0.027214453 4290647119
-0.067625001 0.15567949 0.027759958 4290647119
-0.063145839 0.155481 0.02690129 4290647119
-0.067375004 0.037421651 0.0323135 4290647119
0.024374999 0.0389641 0.0333893 4290647119
0.026321428 0.039503485 0.0312229 4290647119
-0.065375 0.043389998 0.03477665 4290647119
-0.064499997 0.044440702 0.0345845 4290647119
0.027852941 0.042173058 0.032518476 4290647119
0.030649999 0.044051182 0.030705279 4290647119
0.037500001 0.04470985 0.030130688 4290647119
-0.063500002 0.0451729 0.03477335 4290647119
-0.05346429 0.049593899 0.03198624 4290647119
0.029312501 0.045654323 0.034233622 4290647119
0.032565571 0.047466025 0.031792417 4290647119
0.037357144 0.047688704 0.031308353 4290647119
0.042004716 0.048199151 0.031562019 4290647119
0.045571428 0.049359869 0.030610686 4290647119
-0.051298391 0.052357521 0.032536536 4290647119
-0.049718749 0.0532346 0.034445047 4290647119
0.03350893 0.05185594 0.03360844 4290647119
0.03742392 0.052687485 0.031762227 4290647119
0.042392854 0.05277054 0.032321878 4290647119
0.046867926 0.052972008 0.031341851 4290647119
-0.051000003 0.057650521 0.031703796 4290647119
-0.049527779 0.057338502 0.034290679 4290647119
0.03475 0.055094998 0.034572098 4290647119
0.037813637 0.057383362 0.032147322 4290647119
0.042357143 0.057622623 0.031393491 4290647119
0.047357146 0.057626009 0.031433411 4290647119
0.050410714 0.057966981 0.030197907 4290647119
-0.061124995 0.0645101 0.030850833 4290647119
-0.057365391 0.064130932 0.031991575 4290647119
-0.052328125 0.062954605 0.032707214 4290647119
-0.049583331 0.06134738 0.034488477 4290647119
0.038695313 0.062382691 0.033126157 4290647119
0.042550001 0.06130065 0.030462898 4290647119
0.047499996 0.061272465 0.030520855 4290647119
0.050349999 0.060897239 0.030158583 4290647119
-0.071000002 0.069336213 0.030912651 4290647119
-0.067403853 0.068320945 0.032572005 4290647119
-0.062821425 0.066606864 0.033217505 4290647119
-0.058107141 0.065828986 0.0342202 4290647119
0.039032608 0.067778274 0.033944793 4290647119
0.040346153 0.06774307 0.031106912 4290647119
-0.075708337 0.07371109 0.031207731 4290647119
-0.072750002 0.072275929 0.032997724 4290647119
-0.069250003 0.070812345 0.034447547 4290647119
0.039031249 0.07255394 0.033870779 4290647119
0.040717393 0.072485156 0.031277131 4290647119
-0.080583334 0.079200536 0.030760966 4290647119
-0.077357844 0.077644765 0.032718532 4290647119
-0.074416667 0.075749397 0.034532968 4290647119
0.03923529 0.077383325 0.034082051 4290647119
0.040718753 0.077493049 0.031810489 4290647119
-0.081233338 0.082683772 0.031985421 4290647119
-0.079202391 0.081885591 0.034103882 4290647119
0.039350007 0.08267387 0.034228697 4290647119
0.040750001 0.082362421 0.032079775 4290647119
-0.081721596 0.087412648 0.032356974 4290647119
-0.079999998 0.087509729 0.034673952 4290647119
0.039137498 0.087564394 0.034005754 4290647119
0.040642865 0.086972043 0.031644639 4290647119
-0.082004726 0.092378587 0.032191347 4290647119
-0.079704545 0.092687272 0.034700837 4290647119
0.038848214 0.092671536 0.033294693 4290647119
0.040325001 0.091554798 0.030626506 4290647119
-0.081975482 0.097181953 0.031990096 4290647119
-0.079458334 0.097811908 0.034366142 4290647119
0.037647959 0.09741693 0.032515042 4290647119
0.039999999 0.095013604 0.0300088 4290647119
-0.081233338 0.10190196 0.031113671 4290647119
-0.078637496 0.10263385 0.033454482 4290647119
0.033847827 0.10316022 0.033958342 4290647119
0.036121216 0.10197852 0.031831309 4290647119
-0.080499999 0.10627072 0.030335998 4290647119
-0.078499995 0.10668779 0.032594524 4290647119
0.029625 0.1092385 0.034862198 4290647119
0.032531824 0.10737767 0.032622334 4290647119
0.035187501 0.10559525 0.030566476 4290647119
-0.052388892 0.1142489 0.034600768 4290647119
-0.047624998 0.11419179 0.034271695 4290647119
-0.042511906 0.11414558 0.034360573 4290647119
-0.037428569 0.1136277 0.034189217 4290647119
-0.032856058 0.11368369 0.03425597 4290647119
-0.027911766 0.11426854 0.034532696 4290647119
-0.02475 0.11458 0.0348695 4290647119
0.024 0.11421075 0.034630701 4290647119
0.02778846 0.11286723 0.033591472 4290647119
0.031094827 0.11168904 0.031442922 4290647119
-0.05214151 0.1170316 0.033674225 4290647119
-0.047851693 0.11694146 0.031933367 4290647119
-0.042590167 0.1169686 0.032011043 4290647119
-0.037642851 0.11726679 0.03166071 4290647119
-0.032717213 0.11696635 0.031740289 4290647119
-0.027538463 0.11711989 0.032011472 4290647119
-0.023095001 0.11788011 0.033359647 4290647119
-0.018916667 0.11930733 0.034466553 4290647119
0.018000003 0.11919075 0.034510508 4290647119
0.022588713 0.11755541 0.033279337 4290647119
0.026659092 0.11621726 0.031464331 4290647119
-0.05108333 0.12223996 0.033871397 4290647119
-0.049345236 0.122304 0.031654272 4290647119
-0.022062501 0.12055995 0.031105036 4290647119
-0.017432293 0.12162769 0.032303851 4290647119
-0.012846938 0.1230318 0.032955024 4290647119
-0.0078666667 0.12375461 0.033810858 4290647119
-0.0026250002 0.12415614 0.033683144 4290647119
0.0025735293 0.12364119 0.033988886 4290647119
0.0073387092 0.12375893 0.03387804 4290647119
0.01266518 0.12276745 0.033283856 4290647119
0.017168267 0.12169916 0.032133006 4290647119
0.021489132 0.12091298 0.031310488 4290647119
-0.051612496 0.12764367 0.033664677 4290647119
-0.049357142 0.12698017 0.031231321 4290647119
-0.0115 0.1251004 0.030633101 4290647119
-0.0073958333 0.1256603 0.031064084 4290647119
-0.0026439391 0.12599193 0.03153313 4290647119
0.0023333335 0.12587056 0.031753875 4290647119
0.0073333331 0.12585275 0.031343214 4290647119
0.0116875 0.12546919 0.030818293 4290647119
-0.090625003 0.13192651 0.030037999 4290647119
-0.056024998 0.13410561 0.03432703 4290647119
-0.052745763 0.13225865 0.032461289 4290647119
-0.049874999 0.13050199 0.030484799 4290647119
-0.089749999 0.138918 0.034217399 4290647119
-0.060818192 0.13846727 0.034402855 4290647119
-0.057484366 0.13761498 0.032890204 4290647119
-0.054176476 0.13630971 0.031009663 4290647119
-0.088395834 0.14362009 0.033162031 4290647119
-0.0605 0.1403625 0.034405451 4290647119
-0.057537496 0.14236112 0.032017104 4290647119
-0.055 0.14382599 0.030019199 4290647119
-0.086683325 0.14721131 0.032485344 4290647119
-0.083846159 0.14924701 0.033721611 4290647119
-0.057292543 0.14730369 0.03208556 4290647119
-0.085249998 0.15031999 0.0301359 4290647119
-0.082148142 0.15119658 0.032142177 4290647119
-0.077625006 0.15274517 0.032783806 4290647119
-0.072515145 0.15367977 0.032796364 4290647119
-0.067583337 0.15397908 0.032541975 4290647119
-0.062480774 0.15348928 0.032910604 4290647119
-0.058244046 0.15203758 0.032336604 4290647119
-0.066013888 0.03838703 0.037675709 4290647119
-0.06470833 0.039143618 0.039605279 4290647119
0.022636367 0.038882475 0.038458254 4290647119
-0.065774992 0.041241579 0.036074322 4290647119
-0.063964285 0.04287263 0.038188159 4290647119
0.024105262 0.04235151 0.039113909 4290647119
0.02607609 0.043546185 0.037083697 4290647119
-0.0613125 0.046325833 0.03860626 4290647119
-0.057454541 0.047992352 0.038409587 4290647119
-0.052250002 0.04869784 0.038014855 4290647119
-0.047624998 0.048766021 0.038721312 4290647119
-0.042718749 0.04911093 0.039534874 4290647119
-0.037583336 0.048634958 0.039407458 4290647119
-0.034049999 0.049432207 0.038998641 4290647119
0.024032611 0.047666136 0.039329421 4290647119
0.02723846 0.047697693 0.037365291 4290647119
0.030333333 0.049301732 0.035674065 4290647119
-0.050583333 0.050489467 0.0356718 4290647119
-0.047375001 0.052393783 0.037177935 4290647119
-0.042642858 0.052705955 0.039169926 4290647119
-0.037642855 0.052684221 0.038938224 4290647119
-0.032716416 0.052648116 0.037539367 4290647119
-0.027814999 0.053244662 0.03783074 4290647119
0.024625 0.050997652 0.039768152 4290647119
0.027867023 0.052056827 0.038648482 4290647119
0.031361837 0.052953701 0.036866236 4290647119
-0.047000002 0.057443734 0.037153542 4290647119
-0.043315474 0.057071097 0.039480243 4290647119
-0.03702841 0.057001952 0.039481863 4290647119
-0.032607138 0.057511609 0.037897829 4290647119
-0.027712688 0.057462603 0.037475199 4290647119
0.0295 0.055575497 0.039768748 4290647119
0.032749999 0.057321042 0.038285285 4290647119
0.035500001 0.058369305 0.0360827 4290647119
-0.052250002 0.064998999 0.035081301 4290647119
-0.047312498 0.062531188 0.037281889 4290647119
-0.044634622 0.062151961 0.039589003 4290647119
-0.032250002 0.06234112 0.038764093 4290647119
-0.028033897 0.06241098 0.03804595 4290647119
0.033851855 0.062270593 0.039281171 4290647119
0.036222976 0.062608883 0.036877524 4290647119
-0.065812498 0.069775976 0.0353681 4290647119
-0.062141314 0.068747856 0.035959966 4290647119
-0.057478268 0.068092786 0.036881678 4290647119
-0.052523442 0.067476131 0.037014086 4290647119
-0.048009094 0.067055404 0.038567018 4290647119
-0.044875003 0.06577345 0.039904401 4290647119
-0.031351563 0.067064583 0.03935419 4290647119
-0.028393617 0.06724216 0.039006371 4290647119
0.033961535 0.067476444 0.039290685 4290647119
0.036588546 0.067374341 0.036930516 4290647119
-0.071453132 0.07391227 0.035901301 4290647119
-0.067444444 0.072732583 0.037122898 4290647119
-0.062918276 0.071756989 0.038304977 4290647119
-0.057666663 0.070975475 0.039125819 4290647119
-0.052696437 0.070937097 0.039264891 4290647119
-0.049333334 0.070530564 0.039400604 4290647119
-0.0306 0.070893064 0.039807282 4290647119
-0.029225001 0.070822798 0.039807223 4290647119
0.034137499 0.072305873 0.039484616 4290647119
0.036510866 0.072422162 0.037076913 4290647119
-0.075562499 0.079317056 0.035831586 4290647119
-0.072372876 0.077564336 0.037411246 4290647119
-0.068292856 0.076350525 0.039056748 4290647119
0.034388885 0.076257959 0.039744146 4290647119
0.036777269 0.077556588 0.037418533 4290647119
-0.076843143 0.082954399 0.03675919 4290647119
-0.073189028 0.08196944 0.039006598 4290647119
0.03475 0.082974747 0.039792299 4290647119
0.036815792 0.082545064 0.037176371 4290647119
-0.077360712 0.087657809 0.037536614 4290647119
-0.074424997 0.086402819 0.039578982 4290647119
0.03475 0.0850823 0.039794099 4290647119
0.036649998 0.087585919 0.037520919 4290647119
-0.077075414 0.092615388 0.037477147 4290647119
-0.074583337 0.09278167 0.039773636 4290647119
0.034216665 0.093543701 0.039412566 4290647119
0.036389541 0.092428453 0.037227206 4290647119
-0.076870538 0.097498193 0.036670141 4290647119
-0.073596776 0.098305978 0.039126709 4290647119
0.033000004 0.097997598 0.038151421 4290647119
0.035566669 0.096770637 0.036142703 4290647119
-0.076121211 0.10223985 0.035927754 4290647119
-0.072534084 0.10270536 0.037984118 4290647119
-0.068370968 0.1038102 0.039317399 4290647119
-0.050499998 0.10492 0.03987845 4290647119
-0.0495 0.104924 0.039942 4290647119
-0.040437501 0.1043785 0.039718926 4290647119
-0.037826922 0.10429793 0.039520808 4290647119
-0.034000002 0.104912 0.039751299 4290647119
0.0241 0.1047618 0.03961128 4290647119
0.027880952 0.10353056 0.038714435 4290647119
0.031680852 0.10222208 0.036603168 4290647119
-0.075828947 0.10700158 0.036003251 4290647119
-0.072419368 0.10746975 0.037377615 4290647119
-0.06764286 0.10764531 0.038005397 4290647119
-0.062714286 0.10792742 0.038768873 4290647119
-0.05765 0.1084043 0.038834743 4290647119
-0.052460525 0.1081184 0.038841512 4290647119
-0.047944441 0.1081807 0.03905569 4290647119
-0.042311322 0.10818352 0.038724698 4290647119
-0.037642859 0.10763607 0.0378456 4290647119
-0.032796878 0.10785731 0.038582593 4290647119
-0.028012503 0.10866265 0.039008535 4290647119
-0.024142858 0.10967286 0.039747298 4290647119
0.0094999997 0.109887 0.039947301 4290647119
0.011107144 0.10977786 0.039820086 4290647119
0.018013157 0.10938006 0.039572112 4290647119
0.022689655 0.10799988 0.039033554 4290647119
0.027290441 0.10755599 0.037379932 4290647119
0.030475 0.10628979 0.035557397 4290647119
-0.091250002 0.114816 0.039317202 4290647119
-0.089000009 0.11270166 0.039569002 4290647119
-0.066763163 0.11104327 0.037961766 4290647119
-0.062391128 0.11235993 0.03731592 4290647119
-0.05760714 0.11252245 0.036297299 4290647119
-0.052682694 0.11189176 0.036268715 4290647119
-0.047600001 0.11181611 0.036380671 4290647119
-0.042647962 0.11177856 0.036229972 4290647119
-0.037785713 0.11128238 0.035932578 4290647119
-0.032385133 0.1113805 0.036160108 4290647119
-0.027509432 0.11194564 0.036539666 4290647119
-0.02263806 0.11265332 0.038087659 4290647119
-0.017849999 0.11350814 0.039027713 4290647119
-0.013482144 0.11447535 0.039580017 4290647119
0.008799999 0.11332723 0.039590038 4290647119
0.012392857 0.11266419 0.038875524 4290647119
0.017392853 0.11261942 0.038054846 4290647119
0.022185486 0.11231233 0.036643587 4290647119
0.026249999 0.11107544 0.035867345 4290647119
-0.092874996 0.11802366 0.039638285 4290647119
-0.060977269 0.11620481 0.038752679 4290647119
-0.057460938 0.11742755 0.037948228 4290647119
-0.054205883 0.11853041 0.035980791 4290647119
-0.021512499 0.11616236 0.035862677 4290647119
-0.017454917 0.11723499 0.036564335 4290647119
-0.012642857 0.11758625 0.037975375 4290647119
-0.007663935 0.11793553 0.038672924 4290647119
-0.0027717387 0.11846894 0.038970482 4290647119
0.0025188676 0.11820227 0.038776807 4290647119
0.0073913042 0.11762079 0.038047988 4290647119
0.012357141 0.11752148 0.036701184 4290647119
0.017166667 0.11695951 0.036013838 4290647119
0.0205625 0.11585726 0.035474725 4290647119
-0.093312502 0.12282475 0.039832477 4290647119
-0.05625001 0.12236696 0.039221566 4290647119
-0.05356396 0.12258503 0.036683165 4290647119
-0.01525 0.120289 0.035131302 4290647119
-0.012047619 0.12082823 0.03577318 4290647119
-0.0074125007 0.12143991 0.036117144 4290647119
-0.0025999995 0.12177341 0.036377646 4290647119
0.0022222223 0.12128884 0.036191147 4290647119
0.0074358978 0.12135849 0.035738517 4290647119
0.011303572 0.12075893 0.035385963 4290647119
-0.091666669 0.12810649 0.039252486 4290647119
-0.060583334 0.12955999 0.039779101 4290647119
-0.057102941 0.12799852 0.038686112 4290647119
-0.054016668 0.1271648 0.036201548 4290647119
-0.090499997 0.131698 0.039521296 4290647119
-0.089874998 0.13442001 0.038923748 4290647119
-0.061838891 0.13301851 0.038680725 4290647119
-0.057870839 0.13227633 0.036887076 4290647119
-0.054666668 0.13058233 0.035501402 4290647119
-0.089099996 0.13783829 0.038320892 4290647119
-0.062617347 0.1374023 0.037029214 4290647119
-0.059333336 0.13560951 0.035492849 4290647119
-0.087106064 0.14266725 0.037808735 4290647119
-0.084449999 0.1445338 0.039362937 4290647119
-0.062531255 0.14275052 0.037567854 4290647119
-0.059708331 0.14387482 0.035690416 4290647119
-0.0858 0.14573219 0.036186684 4290647119
-0.082554996 0.14744832 0.037499074 4290647119
-0.077848203 0.14917485 0.038643744 4290647119
-0.072724998 0.1497571 0.039214026 4290647119
-0.066929698 0.14873083 0.039156329 4290647119
-0.062642865 0.1476341 0.037492935 4290647119
-0.059562501 0.14758827 0.035797849 4290647119
-0.080250002 0.150446 0.035213798 4290647119
-0.076954536 0.15099511 0.036309231 4290647119
-0.072359376 0.15134107 0.036953852 4290647119
-0.067625001 0.15156063 0.036754329 4290647119
-0.062922418 0.1512067 0.035947911 4290647119
-0.059749998 0.150446 0.035213798 4290647119
-0.062666662 0.038098127 0.04296717 4290647119
-0.0463125 0.039005071 0.0447204 4290647119
-0.042649999 0.038268264 0.043611847 4290647119
-0.038778845 0.038372759 0.043315981 4290647119
0.0097500002 0.037682101 0.0447479 4290647119
0.012547297 0.038656928 0.044570252 4290647119
0.017178571 0.038741983 0.043312918 4290647119
0.020795453 0.0388522 0.04122651 4290647119
-0.06172223 0.042248543 0.042542249 4290647119
-0.058333334 0.043565001 0.044228017 4290647119
-0.051988095 0.044187937 0.044482142 4290647119
-0.047449995 0.042662572 0.043873508 4290647119
-0.042607136 0.042422373 0.04270345 4290647119
-0.038095456 0.042641673 0.042706996 4290647119
0.0095625008 0.043887202 0.044920802 4290647119
0.01272845 0.042880978 0.044676546 4290647119
0.017392855 0.042532127 0.043775793 4290647119
0.021688774 0.042555764 0.041330382 4290647119
-0.060799997 0.045375779 0.041074477 4290647119
-0.057526313 0.046201605 0.042088192 4290647119
-0.052772738 0.04642646 0.042164691 4290647119
-0.047624998 0.046175357 0.041262798 4290647119
-0.0425625 0.046423975 0.040790409 4290647119
-0.037678573 0.045984782 0.040877413 4290647119
-0.032825001 0.047719337 0.043401491 4290647119
-0.029428573 0.049247153 0.044208586 4290647119
0.01335 0.046123624 0.044305898 4290647119
0.017488463 0.047271155 0.043141212 4290647119
0.021588542 0.047284395 0.040973201 4290647119
-0.031156249 0.050341662 0.041258849 4290647119
-0.027481481 0.05103071 0.042180803 4290647119
-0.023316666 0.052656189 0.042957209 4290647119
0.018750001 0.050382756 0.044458963 4290647119
0.022702131 0.052142099 0.042584773 4290647119
0.026402779 0.05382907 0.040710479 4290647119
-0.041544639 0.058600832 0.040206041 4290647119
-0.038586542 0.058841445 0.040327493 4290647119
-0.025250001 0.057951931 0.040151101 4290647119
-0.023613637 0.057399586 0.042596504 4290647119
0.024092104 0.056883987 0.044346288 4290647119
0.027291665 0.057538986 0.042265467 4290647119
0.030673077 0.058872931 0.040376268 4290647119
-0.042188596 0.062793992 0.040836558 4290647119
-0.037642855 0.062724784 0.041166719 4290647119
-0.034541667 0.063472085 0.040357023 4290647119
-0.025545454 0.062857084 0.04050158 4290647119
-0.02372436 0.062416419 0.04295234 4290647119
0.02475 0.062360696 0.0449435 4290647119
0.027382143 0.062448364 0.043571025 4290647119
0.031418599 0.062862277 0.040692519 4290647119
-0.046133328 0.068889834 0.040474277 4290647119
-0.042540438 0.067700401 0.041280109 4290647119
-0.037607148 0.067681193 0.04165246 4290647119
-0.033664472 0.067952365 0.040731501 4290647119
-0.026034093 0.068046696 0.04182221 4290647119
-0.024333332 0.066673286 0.044042859 4290647119
0.02457143 0.066956438 0.044837356 4290647119
0.027338816 0.067536876 0.043283079 4290647119
0.031465907 0.067617081 0.040912904 4290647119
-0.061847225 0.074112862 0.040695235 4290647119
-0.057624996 0.073609255 0.041204024 4290647119
-0.052607138 0.073549926 0.041493293 4290647119
-0.047484372 0.072759159 0.041530252 4290647119
-0.04264285 0.072650313 0.042318549 4290647119
-0.037642855 0.072623797 0.042002738 4290647119
-0.032800008 0.072655581 0.040971633 4290647119
-0.027709998 0.072708912 0.042011499 4290647119
0.027865741 0.072487608 0.043622233 4290647119
0.031644996 0.072595708 0.041173119 4290647119
-0.066921428 0.078388281 0.04089985 4290647119
-0.062607147 0.077529505 0.041926805 4290647119
-0.05760714 0.077637866 0.04324707 4290647119
-0.052607145 0.07764858 0.043377798 4290647119
-0.047607139 0.077630237 0.043152578 4290647119
-0.04260714 0.077602938 0.042816542 4290647119
-0.037607141 0.077579334 0.042531487 4290647119
-0.032607146 0.077483468 0.041361947 4290647119
-0.028941667 0.077202097 0.042778566 4290647119
0.029068183 0.077486753 0.04450788 4290647119
0.03209836 0.077729136 0.042392574 4290647119
-0.071119562 0.082949273 0.040627431 4290647119
-0.067642868 0.082486756 0.042488523 4290647119
-0.062642865 0.082590833 0.043793265 4290647119
-0.058025423 0.082578622 0.044084273 4290647119
-0.052027777 0.081790768 0.044500526 4290647119
-0.047475804 0.082360402 0.044021964 4290647119
-0.042642858 0.08249899 0.042639289 4290647119
-0.037642855 0.082570419 0.04353518 4290647119
-0.03264286 0.082451038 0.042037811 4290647119
-0.029625 0.08234895 0.043898281 4290647119
0.029137501 0.082717136 0.044053145 4290647119
0.032286763 0.082439601 0.042150527 4290647119
-0.072162278 0.087430313 0.04107786 4290647119
-0.067607142 0.087487184 0.043577921 4290647119
-0.063161284 0.086528815 0.044676382 4290647119
-0.057547163 0.087326966 0.044603419 4290647119
-0.05372728 0.089380674 0.044888861 4290647119
-0.046527777 0.087942481 0.044406608 4290647119
-0.042607147 0.087435886 0.042910617 4290647119
-0.037607141 0.087479062 0.043470606 4290647119
-0.032607146 0.087466493 0.04331613 4290647119
-0.029458331 0.087664612 0.044356842 4290647119
0.02884483 0.087663367 0.043974318 4290647119
0.032358699 0.08741641 0.042264096 4290647119
-0.072249994 0.092260242 0.041265681 4290647119
-0.067642845 0.092375979 0.042846184 4290647119
-0.063368753 0.093176782 0.044386011 4290647119
-0.057160709 0.094382063 0.044774584 4290647119
-0.052511372 0.092579268 0.04431295 4290647119
-0.047642857 0.092451215 0.043882351 4290647119
-0.042642862 0.092359118 0.042618938 4290647119
-0.037642855 0.092434302 0.043649659 4290647119
-0.032642856 0.092492856 0.044453155 4290647119
-0.028354168 0.09255448 0.044491895 4290647119
-0.025 0.094633497 0.0447657 4290647119
0.0285 0.092668325 0.043976624 4290647119
0.031995762 0.092133589 0.041826315 4290647119
-0.071616277 0.096991226 0.040853664 4290647119
-0.067640841 0.097299524 0.041883241 4290647119
-0.062607147 0.097335272 0.042981457 4290647119
-0.05760714 0.097366847 0.043441221 4290647119
-0.052607145 0.097368211 0.043463033 4290647119
-0.047607142 0.097371086 0.043504842 4290647119
-0.042607147 0.097286381 0.0422763 4290647119
-0.037607145 0.097316831 0.042714301 4290647119
-0.032727268 0.097518764 0.0440972 4290647119
-0.027423386 0.097643517 0.043992449 4290647119
-0.022969389 0.097938463 0.044641029 4290647119
-0.018099999 0.098902524 0.044422988 4290647119
-0.01425 0.099569529 0.044684697 4290647119
0.0241875 0.099021219 0.044403374 4290647119
0.027579544 0.097478904 0.042730708 4290647119
0.030923078 0.096699126 0.040862914 4290647119
-0.070249997 0.100679 0.0400647 4290647119
-0.067093752 0.1016461 0.040863205 4290647119
-0.062624998 0.10255047 0.041610174 4290647119
-0.057657901 0.10245659 0.042181592 4290647119
-0.052679483 0.10248396 0.041563284 4290647119
-0.047607139 0.10245097 0.041564547 4290647119
-0.042692561 0.10235937 0.041322693 4290647119
-0.037527777 0.10161063 0.041071303 4290647119
-0.03255263 0.1024333 0.041813478 4290647119
-0.027716218 0.10241828 0.04268036 4290647119
-0.022642858 0.10233244 0.043725252 4290647119
-0.017642858 0.10231979 0.043532658 4290647119
-0.012673913 0.10236611 0.043778285 4290647119
-0.0076249996 0.1027014 0.043977134 4290647119
-0.002625 0.10271376 0.044174246 4290647119
0.0021730766 0.10294621 0.04397979 4290647119
0.0068125003 0.10401344 0.044060849 4290647119
0.011666667 0.104525 0.044900496 4290647119
0.017986841 0.10401332 0.044445008 4290647119
0.022588983 0.10253725 0.043185469 4290647119
0.026743244 0.10127068 0.041209899 4290647119
-0.076750003 0.10933615 0.042670559 4290647119
-0.062000003 0.10564971 0.040215228 4290647119
-0.057520833 0.10584923 0.040578734 4290647119
-0.053442307 0.10592369 0.040236488 4290647119
-0.046544116 0.10612065 0.04041446 4290647119
-0.043763157 0.106114 0.040485308 4290647119
-0.031000001 0.10588884 0.040260915 4290647119
-0.027041668 0.10627466 0.040776927 4290647119
-0.022479452 0.10728071 0.041496243 4290647119
-0.017625 0.10752814 0.041989975 4290647119
-0.012640843 0.10727648 0.043036833 4290647119
-0.0076071424 0.1072794 0.043751147 4290647119
-0.002607143 0.10727894 0.043740269 4290647119
0.0023928571 0.10721321 0.042648688 4290647119
0.0073481007 0.10747464 0.041616756 4290647119
0.012496576 0.10730485 0.042046651 4290647119
0.01717623 0.10690439 0.041928302 4290647119
0.021 0.1059555 0.041348726 4290647119
-0.090499997 0.11466066 0.040841866 4290647119
-0.087510414 0.11303362 0.042931825 4290647119
-0.082624994 0.11116946 0.043831538 4290647119
-0.077687494 0.11019885 0.04435401 4290647119
-0.072416663 0.11045966 0.043083154 4290647119
-0.067454547 0.11223182 0.042722676 4290647119
-0.064208336 0.11435416 0.041731063 4290647119
-0.020500001 0.11061 0.040202301 4290647119
-0.017170001 0.11125613 0.040594406 4290647119
-0.012403846 0.11202613 0.041333951 4290647119
-0.0076250001 0.1124716 0.041800853 4290647119
-0.0026249995 0.1124882 0.042107455 4290647119
0.0023750002 0.11247209 0.041815124 4290647119
0.0066111106 0.11241833 0.040709697 4290647119
-0.091450006 0.1179608 0.042606909 4290647119
-0.089361101 0.11570455 0.044231355 4290647119
-0.062106062 0.11776781 0.042000011 4290647119
-0.059583332 0.1193605 0.040380802 4290647119
-0.0074999994 0.11557356 0.040235713 4290647119
-0.0023958331 0.11611652 0.040456865 4290647119
0.0018529412 0.11591377 0.040364787 4290647119
0.0049999999 0.115565 0.040080398 4290647119
-0.091842115 0.12264156 0.042910669 4290647119
-0.061357159 0.12271092 0.042931322 4290647119
-0.058685891 0.12289304 0.040789586 4290647119
-0.09101136 0.12700583 0.042164296 4290647119
-0.089468755 0.1284485 0.043848183 4290647119
-0.062194999 0.12791473 0.042280857 4290647119
-0.059092101 0.12662669 0.040481854 4290647119
-0.09025 0.131265 0.040643949 4290647119
-0.088621616 0.1328885 0.042633548 4290647119
-0.065899998 0.13323656 0.043555036 4290647119
-0.063990004 0.13200486 0.041264925 4290647119
-0.08701282 0.13782075 0.04243109 4290647119
-0.084428564 0.13956358 0.044320516 4290647119
-0.066367649 0.13791895 0.043220211 4290647119
-0.064775005 0.1374853 0.040543787 4290647119
-0.086000003 0.1412935 0.041049067 4290647119
-0.082727268 0.14290249 0.042607181 4290647119
-0.078125007 0.14440945 0.044181131 4290647119
-0.071970589 0.14459024 0.044425223 4290647119
-0.067331977 0.14297825 0.042836502 4290647119
-0.064874999 0.1416295 0.040371228 4290647119
-0.081035718 0.14588557 0.040862374 4290647119
-0.077288039 0.14683633 0.0418882 4290647119
-0.072459817 0.14738493 0.041943394 4290647119
-0.068243437 0.14685071 0.041230548 4290647119
-0.060449999 0.038024522 0.045305282 4290647119
-0.057777777 0.038423233 0.046539273 4290647119
-0.052511632 0.038366433 0.046690729 4290647119
-0.048279405 0.038174059 0.045459379 4290647119
-0.036264703 0.038865935 0.04610303 4290647119
-0.034406252 0.038768124 0.049116716 4290647119
-0.011295456 0.038213775 0.049690269 4290647119
-0.0075606061 0.038709916 0.048948906 4290647119
-0.0026406248 0.038591791 0.047477104 4290647119
0.0024124999 0.038683224 0.046182133 4290647119
0.0073141037 0.038847033 0.045473427 4290647119
0.010249999 0.039611869 0.045165434 4290647119
-0.056904763 0.041654091 0.046026547 4290647119
-0.052950893 0.041818239 0.046027597 4290647119
-0.049650002 0.041125663 0.045220338 4290647119
-0.035816666 0.041946232 0.045860782 4290647119
-0.033609755 0.043080747 0.048083827 4290647119
-0.010857143 0.043255974 0.049795527 4290647119
-0.0076428568 0.042358894 0.048922304 4290647119
-0.002625 0.042539492 0.047272544 4290647119
0.0023150684 0.042664763 0.046193551 4290647119
0.0072613638 0.042642549 0.045579642 4290647119
0.010770834 0.041437473 0.045160268 4290647119
-0.031476188 0.045928925 0.047392525 4290647119
-0.02774 0.048083588 0.0480894 4290647119
-0.022666665 0.049311124 0.047965806 4290647119
-0.017456522 0.048654769 0.048145995 4290647119
-0.012558593 0.047320124 0.048662793 4290647119
-0.0077075469 0.046620719 0.048083082 4290647119
-0.0028055552 0.04677023 0.048417117 4290647119
0.0021481481 0.0465017 0.048856609 4290647119
0.0078194449 0.046918362 0.04871938 4290647119
0.012056819 0.048148856 0.046920851 4290647119
0.01565 0.049634762 0.045500442 4290647119
-0.025749998 0.050447669 0.045134734 4290647119
-0.021471154 0.052212279 0.045738339 4290647119
-0.017916666 0.052325886 0.048115853 4290647119
-0.014354167 0.05103584 0.049373943 4290647119
0.013221429 0.051887024 0.04878642 4290647119
0.017320313 0.052876901 0.047067244 4290647119
0.020897059 0.053771172 0.046102159 4290647119
-0.021111107 0.057619311 0.046446603 4290647119
-0.019134615 0.05712096 0.048896007 4290647119
0.014607142 0.056697309 0.049695138 4290647119
0.017387679 0.05772246 0.048938651 4290647119
0.021710783 0.057844047 0.047083218 4290647119
-0.021217743 0.06256862 0.047019944 4290647119
-0.019613637 0.061930262 0.049366906 4290647119
0.01805729 0.062340368 0.049113255 4290647119
0.02225 0.062527269 0.046804368 4290647119
-0.022581082 0.06743487 0.047542967 4290647119
0.019117646 0.067045212 0.049531274 4290647119
0.022111109 0.067497924 0.047235038 4290647119
-0.025562501 0.073285244 0.045691036 4290647119
-0.024115385 0.072033688 0.047794368 4290647119
0.019750001 0.070492104 0.049961101 4290647119
0.022962263 0.072272666 0.048355535 4290647119
0.025576923 0.073207378 0.045725074 4290647119
-0.026774192 0.077543765 0.047082182 4290647119
-0.025 0.0752621 0.0484116 4290647119
0.023493424 0.077330135 0.049235601 4290647119
0.026604168 0.077615328 0.046525761 4290647119
-0.055590913 0.082887292 0.045111474 4290647119
-0.053294118 0.083612621 0.045233037 4290647119
-0.0489375 0.084627695 0.04516916 4290647119
-0.028050004 0.082507923 0.047473211 4290647119
0.023506578 0.082522295 0.049302191 4290647119
0.02662736 0.082534619 0.046731096 4290647119
-0.062166665 0.088445663 0.045260087 4290647119
-0.05779412 0.088347688 0.045067467 4290647119
-0.052398302 0.087291323 0.045367725 4290647119
-0.048749994 0.087207094 0.045313325 4290647119
-0.02746341 0.087638341 0.047821742 4290647119
0.018758928 0.08823587 0.049232032 4290647119
0.022429487 0.08758945 0.048716139 4290647119
0.026333332 0.087552376 0.046586793 4290647119
-0.061675001 0.091630608 0.045204476 4290647119
-0.057763394 0.092086419 0.045268144 4290647119
-0.054812498 0.090946257 0.045017298 4290647119
-0.026812499 0.092418924 0.046389144 4290647119
-0.023767855 0.093474545 0.048356939 4290647119
0.0145 0.094975397 0.049877699 4290647119
0.017845456 0.092989676 0.048335519 4290647119
0.022357143 0.0927229 0.04759746 4290647119
0.026075758 0.092363298 0.045893706 4290647119
-0.030625001 0.09571255 0.045052752 4290647119
-0.029031251 0.095624335 0.045052685 4290647119
-0.021761904 0.096401826 0.046032477 4290647119
-0.017586537 0.097458988 0.047615767 4290647119
-0.012809999 0.099010333 0.048222683 4290647119
-0.0077272723 0.099802494 0.049357709 4290647119
-0.0024999999 0.0998879 0.049760528 4290647119
0.0028333333 0.099603347 0.048851345 4290647119
0.0076707317 0.098678775 0.048661761 4290647119
0.012466419 0.09781535 0.048701599 4290647119
0.017392857 0.097638085 0.047396708 4290647119
0.022161292 0.097359881 0.046323027 4290647119
0.025349999 0.095939919 0.045275539 4290647119
-0.0105 0.100306 0.045151599 4290647119
-0.0077499994 0.10047571 0.047717925 4290647119
-0.0027499998 0.10051359 0.048320226 4290647119
0.0028888888 0.10076388 0.046141189 4290647119
0.0075749988 0.10184409 0.046437267 4290647119
0.01238806 0.10243586 0.046798877 4290647119
0.017122552 0.10188317 0.04620263 4290647119
0.020775 0.10081869 0.0454318 4290647119
-0.086199991 0.1140274 0.045721069 4290647119
-0.082437508 0.11339509 0.046419553 4290647119
-0.077668183 0.11261027 0.047065303 4290647119
-0.072674245 0.11224608 0.048103321 4290647119
-0.068028845 0.11354475 0.047600843 4290647119
-0.09025 0.119367 0.045293 4290647119
-0.087348357 0.11755892 0.047070064 4290647119
-0.082607143 0.11741515 0.04867338 4290647119
-0.079374991 0.11648263 0.049229052 4290647119
-0.065942302 0.11616509 0.048586164 4290647119
-0.064147718 0.11794687 0.04708264 4290647119
-0.090374999 0.12183666 0.045273334 4290647119
-0.087642871 0.12229609 0.047552597 4290647119
-0.083058842 0.12185373 0.04932823 4290647119
-0.065333337 0.12355233 0.049651533 4290647119
-0.063854165 0.12231529 0.047589395 4290647119
-0.087206908 0.12708536 0.047367278 4290647119
-0.084916674 0.12615533 0.049687099 4290647119
-0.066548608 0.1277981 0.04857748 4290647119
-0.064193174 0.12666677 0.046333432 4290647119
-0.086371198 0.13193594 0.047281925 4290647119
-0.08410228 0.13310809 0.049213577 4290647119
-0.070916668 0.13325754 0.049601752 4290647119
-0.068166666 0.13203472 0.047519993 4290647119
-0.085795455 0.1359359 0.045709446 4290647119
-0.082630955 0.13726626 0.047673658 4290647119
-0.077565484 0.13830729 0.049196169 4290647119
-0.072275855 0.13753273 0.048681766 4290647119
-0.068750001 0.13711978 0.046494965 4290647119
-0.081296876 0.14077963 0.045872606 4290647119
-0.077278219 0.14183149 0.046717733 4290647119
-0.072652541 0.14194886 0.046425775 4290647119
-0.069403842 0.14105561 0.04561263 4290647119
-0.031894233 0.038889982 0.051182188 4290647119
-0.027509257 0.038797446 0.05362846 4290647119
-0.022480002 0.038792104 0.053724021 4290647119
-0.017507354 0.03896958 0.052271195 4290647119
-0.01314423 0.038952254 0.050757051 4290647119
-0.031606056 0.041897397 0.050810684 4290647119
-0.027598098 0.042424269 0.052562248 4290647119
-0.022625001 0.042507049 0.053643443 4290647119
-0.017672533 0.042680912 0.05234205 4290647119
-0.013089284 0.042347558 0.050718397 4290647119
-0.026826089 0.046053719 0.050581787 4290647119
-0.022600001 0.046853114 0.051504064 4290647119
-0.017924244 0.046280604 0.051124826 4290647119
-0.013125 0.046832368 0.050167698 4290647119
-0.0072941179 0.049276937 0.050519347 4290647119
-0.0023541665 0.049074993 0.050876494 4290647119
0.0025606062 0.048804704 0.051208094 4290647119
0.0067083337 0.048883881 0.050726935 4290647119
-0.016055556 0.054002479 0.05037041 4290647119
-0.012288792 0.052682213 0.051006101 4290647119
-0.0076428568 0.052556582 0.052306287 4290647119
-0.0026428564 0.052710071 0.053853676 4290647119
0.0023571432 0.052656095 0.05330814 4290647119
0.0073571419 0.052552681 0.052265123 4290647119
0.011201612 0.053076439 0.051151048 4290647119
-0.01671591 0.05754168 0.050997995 4290647119
-0.012607142 0.057457473 0.052459016 4290647119
-0.0076101697 0.057224348 0.053978771 4290647119
-0.0027045454 0.057499394 0.05422705 4290647119
0.0023839285 0.057144783 0.054135192 4290647119
0.007423914 0.057501685 0.053240236 4290647119
0.012146825 0.057427768 0.051550385 4290647119
-0.017232759 0.06243398 0.051952723 4290647119
-0.013264422 0.062339 0.05413634 4290647119
-0.0037500001 0.060466401 0.0548627 4290647119
0.0086666662 0.061863117 0.054371461 4290647119
0.012357143 0.062296331 0.052033529 4290647119
0.015920453 0.063275225 0.050563823 4290647119
-0.020937501 0.068675555 0.051209524 4290647119
-0.017576087 0.067311049 0.053268492 4290647119
-0.012933332 0.067300916 0.054315329 4290647119
0.0091764703 0.066924378 0.054837279 4290647119
0.012392856 0.067303292 0.053527914 4290647119
0.016801884 0.067818522 0.051230207 4290647119
-0.021715909 0.072980233 0.052113067 4290647119
-0.018322222 0.071755581 0.05426437 4290647119
-0.013883335 0.070790157 0.054742571 4290647119
0.012653848 0.072201602 0.053985886 4290647119
0.017299294 0.072686166 0.051821165 4290647119
0.020617647 0.073205806 0.050509244 4290647119
-0.025541669 0.078837536 0.051055402 4290647119
-0.023109999 0.077332266 0.053246226 4290647119
-0.019625001 0.075387232 0.054555822 4290647119
0.012586957 0.077643253 0.054470278 4290647119
0.017357145 0.077703878 0.052995145 4290647119
0.021007814 0.077647269 0.050783575 4290647119
-0.026048077 0.082618676 0.051647507 4290647119
-0.024387501 0.082701877 0.054255616 4290647119
0.0096666664 0.081321701 0.054894567 4290647119
0.012459559 0.082576565 0.053689454 4290647119
0.017392857 0.082510322 0.05200867 4290647119
0.021070315 0.082170583 0.05059335 4290647119
-0.025716666 0.086961441 0.051133674 4290647119
-0.023292551 0.087938033 0.053563669 4290647119
-0.02 0.089672297 0.054905701 4290647119
0.0090000005 0.08943031 0.054765906 4290647119
0.012492424 0.087561958 0.053655084 4290647119
0.016646737 0.086949199 0.051059268 4290647119
0.02025 0.08517395 0.050168298 4290647119
-0.021979999 0.091962665 0.052079972 4290647119
-0.018197672 0.093087606 0.05380683 4290647119
-0.013416667 0.094312184 0.054518264 4290647119
-0.00074999995 0.0945682 0.054907601 4290647119
0.0032403846 0.093658432 0.054534119 4290647119
0.0074485294 0.092451207 0.053564668 4290647119
0.012438355 0.09242142 0.052189805 4290647119
0.015833331 0.091558233 0.050896861 4290647119
-0.020500001 0.095003203 0.050356802 4290647119
-0.017250001 0.0958279 0.051637396 4290647119
-0.012442308 0.096630774 0.05236125 4290647119
-0.0076086954 0.097219281 0.052808568 4290647119
-0.0026428569 0.097258292 0.052963499 4290647119
0.0022692308 0.09706831 0.052463703 4290647119
0.0070641018 0.096150666 0.051521175 4290647119
0.011083334 0.095255941 0.050676256 4290647119
-0.075857148 0.11447143 0.050417986 4290647119
-0.072499998 0.11431725 0.05078236 4290647119
-0.069562502 0.1145005 0.050516322 4290647119
-0.077055089 0.11774615 0.051465761 4290647119
