# .PCD v0.7 - Point Cloud Data file format
VERSION 0.7
FIELDS x y z rgb
SIZE 4 4 4 4
TYPE F F F U
COUNT 1 1 1 1
WIDTH 1050
HEIGHT 1
VIEWPOINT 0 0 0 1 0 0 0
POINTS 1050
DATA ascii
0.66226012 0.021180006 0.27176446 4278190080
0.74370003 0.021299999 0.27182001 4278190080
0.74489999 0.021299995 0.27129999 4278190080
0.74689996 0.021299995 0.27082801 4278190080
0.7489 0.021299995 0.27064002 4278190080
0.75089997 0.021299995 0.27058399 4278190080
0.75209999 0.021299999 0.27149999 4278190080
0.65349984 0.023300001 0.27060753 4278190080
0.6548999 0.023299992 0.27048898 4278190080
0.65690005 0.023299994 0.27057496 4278190080
0.65899473 0.023292117 0.27083778 4278190080
0.66089976 0.023281829 0.27128962 4278190080
0.66219997 0.023259087 0.27178183 4278190080
0.74363345 0.023275001 0.27179584 4278190080
0.74489993 0.023260014 0.27126095 4278190080
0.74689984 0.023260012 0.27076605 4278190080
0.74890018 0.023260016 0.27060893 4278190080
0.75090009 0.023260012 0.27060291 4278190080
0.75209999 0.023260001 0.27163997 4278190080
0.65350032 0.024722859 0.27057576 4278190080
0.65489972 0.024722869 0.27049717 4278190080
0.65689999 0.024722882 0.2705844 4278190080
0.65906656 0.024731141 0.27082902 4278190080
0.6608991 0.024724616 0.27130759 4278190080
0.66220981 0.024716049 0.27181512 4278190080
0.74363482 0.024793027 0.27177441 4278190080
0.74490017 0.024716642 0.27123985 4278190080
0.7469005 0.024716647 0.27077383 4278190080
0.74889982 0.024716642 0.27062353 4278190080
0.75090009 0.02471664 0.27059031 4278190080
0.75209999 0.024664711 0.27162939 4278190080
0.65349996 0.026584618 0.27058846 4278190080
0.65489995 0.026584618 0.27050006 4278190080
0.65690005 0.026584614 0.27062783 4278190080
0.6590417 0.026650632 0.27092525 4278190080
0.66089988 0.026777763 0.27141181 4278190080
0.6621266 0.026899997 0.27183336 4278190080
0.74351674 0.026787506 0.27171668 4278190080
0.74489987 0.026784604 0.27113846 4278190080
0.74689972 0.026784604 0.27072778 4278190080
0.74890006 0.026784604 0.27062008 4278190080
0.75090003 0.026784599 0.27063394 4278190080
0.75209999 0.026660001 0.27178997 4278190080
0.65349978 0.029204994 0.27050754 4278190080
0.65489984 0.029205006 0.27051398 4278190080
0.65689993 0.029204993 0.27065504 4278190080
0.65897942 0.029209016 0.27098188 4278190080
0.66089463 0.029219486 0.2715019 4278190080
0.6621266 0.029380001 0.27189332 4278190080
0.7434572 0.028989289 0.27167502 4278190080
0.74490005 0.028992299 0.27103537 4278190080
0.74689978 0.028992295 0.27062473 4278190080
0.74890023 0.028992306 0.27057394 4278190080
0.75090003 0.028992303 0.27062625 4278190080
0.75209999 0.029133337 0.27180001 4278190080
0.65349996 0.031100001 0.27045 4278190080
0.65489995 0.031099994 0.27049607 4278190080
0.65689993 0.031099994 0.270612 4278190080
0.65916675 0.031182051 0.27088204 4278190080
0.66090006 0.031205889 0.27133057 4278190080
0.66223848 0.031230776 0.27182695 4278190080
0.74342501 0.031384367 0.27164689 4278190080
0.74489981 0.031349998 0.27100572 4278190080
0.7468999 0.031350002 0.27059868 4278190080
0.74890006 0.031349998 0.27054578 4278190080
0.75090015 0.031350017 0.27059153 4278190080
0.75209999 0.031428572 0.27177143 4278190080
0.65350002 0.032550003 0.27052501 4278190080
0.6548999 0.032549996 0.27051011 4278190080
0.65689993 0.032549992 0.27054581 4278190080
0.65906447 0.032706287 0.27071372 4278190080
0.6608941 0.032825906 0.27111003 4278190080
0.66247892 0.03294605 0.27167499 4278190080
0.7434625 0.033528134 0.27167186 4278190080
0.74489987 0.033526685 0.27106932 4278190080
0.7468999 0.033526685 0.27062944 4278190080
0.74890023 0.033526685 0.27051342 4278190080
0.75090009 0.033526685 0.27055073 4278190080
0.75209999 0.033576921 0.27184612 4278190080
0.65350056 0.035171166 0.27049705 4278190080
0.65490019 0.035171095 0.27043495 4278190080
0.65689993 0.035171114 0.27043685 4278190080
0.65904462 0.0351962 0.27053046 4278190080
0.66089934 0.035221718 0.2708683 4278190080
0.66268158 0.035241712 0.27155507 4278190080
0.74349988 0.03529688 0.27167338 4278190080
0.74490011 0.035296835 0.27104315 4278190080
0.74690032 0.035296865 0.27055752 4278190080
0.74890006 0.03529685 0.27046686 4278190080
0.75090033 0.03529685 0.27054614 4278190080
0.75209999 0.035423998 0.27177203 4278190080
0.65350002 0.037 0.27045006 4278190080
0.65490013 0.037000008 0.27041671 4278190080
0.65689981 0.037000004 0.27040669 4278190080
0.65906876 0.036955431 0.27049035 4278190080
0.66089988 0.036929179 0.27083582 4278190080
0.66262686 0.036920018 0.27154347 4278190080
0.74347866 0.03714893 0.27166805 4278190080
0.74490005 0.037130464 0.27102 4278190080
0.74690002 0.037130464 0.27055129 4278190080
0.7489 0.037130456 0.27046597 4278190080
0.75090015 0.03713046 0.27052951 4278190080
0.75209999 0.036945451 0.27185452 4278190080
0.6534999 0.03890001 0.27040002 4278190080
0.6548999 0.038899973 0.27037588 4278190080
0.65689999 0.038899973 0.2703799 4278190080
0.65906316 0.038865019 0.27045521 4278190080
0.66089988 0.038837913 0.27087173 4278190080
0.66255265 0.038783502 0.27159232 4278190080
0.74343336 0.038999993 0.27166113 4278190080
0.74490005 0.039000005 0.27099001 4278190080
0.74689984 0.039000005 0.27052757 4278190080
0.74890006 0.039000005 0.27042502 4278190080
0.75089991 0.039000005 0.27049506 4278190080
0.75209999 0.039000001 0.2719 4278190080
0.65348053 0.041229039 0.27058062 4278190080
0.6548999 0.041253339 0.27037194 4278190080
0.65688914 0.041245941 0.27032968 4278190080
0.65905541 0.041206121 0.27048764 4278190080
0.66089988 0.04117782 0.27093783 4278190080
0.66249454 0.04119461 0.27160683 4278190080
0.6645 0.041800003 0.27153334 4278190080
0.74341434 0.040757135 0.27164289 4278190080
0.74489993 0.040806673 0.27094799 4278190080
0.74689984 0.040806673 0.27043596 4278190080
0.74890018 0.040806677 0.27030796 4278190080
0.75090015 0.040806673 0.27039194 4278190080
0.75209999 0.040199999 0.27184999 4278190080
0.65353996 0.0427 0.27156001 4278190080
0.6548692 0.042699996 0.27126923 4278190080
0.65690005 0.042699996 0.27121335 4278190080
0.65924078 0.042700004 0.27102962 4278190080
0.66087449 0.042763509 0.27123496 4278190080
0.66270542 0.042718932 0.27160007 4278190080
0.66471815 0.043199997 0.27179089 4278190080
0.66680002 0.043158334 0.27134165 4278190080
0.66867143 0.043485712 0.27182859 4278190080
0.67095709 0.043485712 0.27180001 4278190080
0.67290002 0.043249998 0.27179998 4278190080
0.67409998 0.0438 0.27169999 4278190080
0.74120003 0.0429 0.27177501 4278190080
0.7430715 0.042885717 0.27167144 4278190080
0.74489993 0.042875007 0.27132499 4278190080
0.74689996 0.042875011 0.27108997 4278190080
0.7489 0.042875007 0.27101496 4278190080
0.75090003 0.042875014 0.27101502 4278190080
0.65976089 -0.074492857 0.2723785 4278190080
0.66102797 -0.074531272 0.27238941 4278190080
0.66300684 -0.074551068 0.27239859 4278190080
0.6650092 -0.074561343 0.2723994 4278190080
0.66702992 -0.074568562 0.27240705 4278190080
0.66900432 -0.074571684 0.2724064 4278190080
0.67102325 -0.074577145 0.27240747 4278190080
0.6730091 -0.074577972 0.27240875 4278190080
0.67500579 -0.074582055 0.2724151 4278190080
0.67704707 -0.074583158 0.272416 4278190080
0.67904484 -0.07458467 0.27243033 4278190080
0.68106806 -0.074584238 0.27243066 4278190080
0.68297988 -0.074575581 0.27242962 4278190080
0.68498302 -0.074577823 0.2724255 4278190080
0.68698156 -0.074575618 0.27241805 4278190080
0.68898094 -0.074577846 0.27241319 4278190080
0.6910305 -0.074576758 0.27240768 4278190080
0.69302851 -0.074576773 0.27239606 4278190080
0.69502896 -0.074576803 0.27240348 4278190080
0.69698018 -0.07457564 0.27241933 4278190080
0.69895315 -0.074581616 0.2724328 4278190080
0.70096856 -0.074585527 0.27244461 4278190080
0.70299715 -0.074584812 0.27246222 4278190080
0.70504576 -0.074578725 0.27246413 4278190080
0.70703787 -0.074578874 0.27248648 4278190080
0.70903635 -0.074578717 0.27250922 4278190080
0.71102571 -0.074578799 0.27252626 4278190080
0.7130208 -0.074578851 0.27254865 4278190080
0.71497774 -0.074578248 0.27255312 4278190080
0.71697414 -0.07457979 0.27259347 4278190080
0.71896827 -0.074578069 0.27261135 4278190080
0.72095162 -0.074583918 0.27262068 4278190080
0.72303838 -0.074591853 0.2726464 4278190080
0.72508109 -0.074589066 0.27266338 4278190080
0.72703731 -0.074576534 0.27268985 4278190080
0.72897506 -0.074575089 0.27272105 4278190080
0.73098022 -0.074577875 0.27275333 4278190080
0.73297566 -0.074575089 0.27279428 4278190080
0.73497862 -0.074577905 0.27282152 4278190080
0.73703659 -0.07457649 0.27285495 4278190080
0.73903626 -0.074576557 0.27288851 4278190080
0.74103683 -0.074576512 0.27291879 4278190080
0.74294776 -0.07457678 0.27295333 4278190080
0.74496323 -0.074580789 0.27296358 4278190080
0.74696374 -0.074576274 0.27299273 4278190080
0.74895644 -0.074577332 0.27301869 4278190080
0.75102472 -0.074573025 0.27303287 4278190080
0.75302786 -0.074569494 0.27304402 4278190080
0.75503719 -0.07456515 0.27307582 4278190080
0.75694913 -0.074554369 0.27309802 4278190080
0.75893384 -0.074556127 0.27310318 4278190080
0.76093197 -0.074531272 0.27310792 4278190080
0.76290607 -0.074528143 0.27313173 4278190080
0.7645089 -0.074460052 0.27318862 4278190080
0.65970016 -0.073072717 0.27239993 4278190080
0.66089994 -0.073072717 0.27239993 4278190080
0.66289979 -0.073072717 0.27240083 4278190080
0.66490006 -0.073072731 0.27239993 4278190080
0.66690022 -0.073072709 0.2724579 4278190080
0.66889971 -0.073072702 0.27248055 4278190080
0.67089987 -0.073072717 0.27249688 4278190080
0.67290002 -0.073072717 0.2724987 4278190080
0.67489994 -0.073072717 0.2724987 4278190080
0.67689991 -0.073072709 0.27248329 4278190080
0.6789 -0.073072717 0.27246606 4278190080
0.68099028 -0.073126584 0.27244654 4278190080
0.68288875 -0.073273271 0.27242362 4278190080
0.68488771 -0.073337168 0.27241206 4278190080
0.68688118 -0.073391326 0.27243045 4278190080
0.68887937 -0.073456608 0.27242839 4278190080
0.69088668 -0.073526226 0.27244571 4278190080
0.6928829 -0.073551267 0.27245986 4278190080
0.69491529 -0.073593482 0.27247199 4278190080
0.69689202 -0.073618814 0.27249795 4278190080
0.69869995 -0.073671609 0.27245682 4278190080
0.70091289 -0.073903225 0.27229345 4278190080
0.70308256 -0.073819526 0.27234122 4278190080
0.70490819 -0.073715709 0.27239877 4278190080
0.70690811 -0.073669963 0.2724148 4278190080
0.70890778 -0.073630422 0.27244449 4278190080
0.71091765 -0.073591188 0.27246988 4278190080
0.71292853 -0.073512807 0.27248141 4278190080
0.71491438 -0.073456757 0.27251747 4278190080
0.71691358 -0.073409475 0.27257469 4278190080
0.71890777 -0.073334575 0.27260733 4278190080
0.72076672 -0.073284455 0.27266145 4278190080
0.72290015 -0.073183306 0.27265441 4278190080
0.724994 -0.073180377 0.2726911 4278190080
0.7268998 -0.073173344 0.27271339 4278190080
0.72890007 -0.073173329 0.27272138 4278190080
0.73090023 -0.073173322 0.27277872 4278190080
0.73290026 -0.073173389 0.27281979 4278190080
0.73489994 -0.073173307 0.27282456 4278190080
0.73690015 -0.073173337 0.27288795 4278190080
0.73890018 -0.073173322 0.27292013 4278190080
0.74089974 -0.073173314 0.27292082 4278190080
0.74271077 -0.073170178 0.27295879 4278190080
0.74490005 -0.073158339 0.27289984 4278190080
0.74689978 -0.073158339 0.27289984 4278190080
0.74890023 -0.073158331 0.27296156 4278190080
0.75090009 -0.073158339 0.27299985 4278190080
0.75289983 -0.073158331 0.27299985 4278190080
0.75489998 -0.073158331 0.27301317 4278190080
0.75690019 -0.073158316 0.27306825 4278190080
0.75889993 -0.073158339 0.27309993 4278190080
0.7608999 -0.073158339 0.27309993 4278190080
0.76290023 -0.073158346 0.2731016 4278190080
0.7644999 -0.073158331 0.2731277 4278190080
0.65969998 -0.071120001 0.27239996 4278190080
0.66089988 -0.071119994 0.27239993 4278190080
0.66290003 -0.071119994 0.27240193 4278190080
0.66490006 -0.071119994 0.27240393 4278190080
0.66689992 -0.071119986 0.27245998 4278190080
0.66890007 -0.071119979 0.272484 4278190080
0.67090005 -0.071119994 0.272488 4278190080
0.67290002 -0.071119986 0.27245998 4278190080
0.67490005 -0.071119986 0.27237794 4278190080
0.67682439 -0.071197286 0.27235129 4278190080
0.67882311 -0.071323082 0.27233842 4278190080
0.68080002 -0.071816675 0.27230832 4278190080
0.68241996 -0.071999997 0.27217999 4278190080
0.71929991 -0.071500003 0.27217144 4278190080
0.72095007 -0.071500003 0.27241877 4278190080
0.7229768 -0.071500026 0.27246547 4278190080
0.72501713 -0.071512237 0.27257082 4278190080
0.72695965 -0.071289659 0.27263793 4278190080
0.72893679 -0.071140379 0.272679 4278190080
0.73090601 -0.071029082 0.27273658 4278190080
0.73290014 -0.071025908 0.27280429 4278190080
0.7349 -0.07102596 0.27283776 4278190080
0.73690015 -0.071025923 0.27288818 4278190080
0.73890001 -0.071025938 0.27291054 4278190080
0.7408998 -0.071025901 0.27292976 4278190080
0.74272877 -0.071042851 0.2729618 4278190080
0.74489999 -0.071100026 0.27289984 4278190080
0.74689978 -0.071100019 0.27290985 4278190080
0.7489 -0.071100019 0.27299985 4278190080
0.75089997 -0.071100011 0.27299985 4278190080
0.75289994 -0.071100011 0.27299985 4278190080
0.75489998 -0.071100011 0.27306655 4278190080
0.75690019 -0.071100011 0.27309993 4278190080
0.75889993 -0.071100026 0.27309993 4278190080
0.76089984 -0.071100019 0.27309993 4278190080
0.76290023 -0.071100011 0.27312496 4278190080
0.7644999 -0.071100011 0.27319443 4278190080
0.65970004 -0.069337502 0.27239996 4278190080
0.6609 -0.069337502 0.27239993 4278190080
0.66289985 -0.069337457 0.27240115 4278190080
0.66490018 -0.06933748 0.27240616 4278190080
0.66690028 -0.069337487 0.27246362 4278190080
0.66883129 -0.069428578 0.27244273 4278190080
0.67081624 -0.069858126 0.27237904 4278190080
0.67276001 -0.070000008 0.27230996 4278190080
0.67423326 -0.07 0.2721 4278190080
0.73159999 -0.069199994 0.27215001 4278190080
0.73303324 -0.069318168 0.27262419 4278190080
0.73495001 -0.069312461 0.27274683 4278190080
0.7369383 -0.069140449 0.27284417 4278190080
0.73892629 -0.068945281 0.27286819 4278190080
0.74089974 -0.068918169 0.27290818 4278190080
0.74282676 -0.068895929 0.27292532 4278190080
0.74489987 -0.068850026 0.27289981 4278190080
0.7468999 -0.068850026 0.27293995 4278190080
0.74890023 -0.068850018 0.27300006 4278190080
0.75090009 -0.068850018 0.27300006 4278190080
0.75289977 -0.068850011 0.27300006 4278190080
0.75489998 -0.068850026 0.2730737 4278190080
0.75690043 -0.068850026 0.27309993 4278190080
0.75889981 -0.068850018 0.27309993 4278190080
0.76090008 -0.068850018 0.27309993 4278190080
0.76290029 -0.068850018 0.27311486 4278190080
0.76449984 -0.068850018 0.27318957 4278190080
0.65969998 -0.067259997 0.27245 4278190080
0.66089994 -0.067273453 0.27244484 4278190080
0.66299647 -0.067168944 0.2724086 4278190080
0.66486424 -0.067092516 0.27272975 4278190080
0.66665709 -0.067503586 0.27267143 4278190080
0.6681 -0.067699999 0.27200001 4278190080
0.73570001 -0.067900002 0.27219999 4278190080
0.73706675 -0.06789998 0.27274582 4278190080
0.73899776 -0.067682199 0.27297768 4278190080
0.7409789 -0.067346156 0.27310881 4278190080
0.74270272 -0.06726712 0.2729961 4278190080
0.74476665 -0.067100011 0.27284586 4278190080
0.74690002 -0.067100003 0.27301997 4278190080
0.74890006 -0.067100003 0.27304497 4278190080
0.75086194 -0.067100011 0.27307612 4278190080
0.75298887 -0.067100018 0.2729471 4278190080
0.75489998 -0.067100026 0.27307743 4278190080
0.75690001 -0.067100026 0.27309993 4278190080
0.75889999 -0.067100026 0.27309993 4278190080
0.7608999 -0.067100026 0.27309993 4278190080
0.76290011 -0.067100026 0.27310744 4278190080
0.76449996 -0.067100011 0.27317917 4278190080
0.66349995 -0.06499476 0.2722553 4278190080
0.66477334 -0.064969502 0.27321586 4278190080
0.74158233 -0.064989693 0.27385518 4278190080
0.74276757 -0.065009832 0.27301523 4278190080
0.74420327 -0.065067768 0.27209353 4278190080
0.75309986 -0.065030478 0.2728599 4278190080
0.75489986 -0.065030485 0.27307478 4278190080
0.75690043 -0.065030485 0.27309993 4278190080
0.75890017 -0.065030485 0.27309993 4278190080
0.7609002 -0.065030485 0.27309993 4278190080
0.76290017 -0.065030485 0.27310771 4278190080
0.76449978 -0.065030478 0.27316654 4278190080
0.63771641 -0.063350022 0.27241662 4278190080
0.63907653 -0.063430667 0.27255654 4278190080
0.64101338 -0.063386269 0.27262631 4278190080
0.64304078 -0.06331981 0.27267259 4278190080
0.64502734 -0.063228421 0.27268353 4278190080
0.64700216 -0.063201599 0.27272752 4278190080
0.64908969 -0.063196763 0.27273723 4278190080
0.65100336 -0.063189127 0.27274218 4278190080
0.65278631 -0.063188337 0.27274594 4278190080
0.65443331 -0.062700003 0.27243331 4278190080
0.66181153 -0.063142315 0.27204996 4278190080
0.66332763 -0.063205615 0.27240986 4278190080
0.6648261 -0.063201465 0.27338669 4278190080
0.74157429 -0.063337386 0.2738789 4278190080
0.74274957 -0.063340068 0.27302516 4278190080
0.74413258 -0.06337028 0.27206764 4278190080
0.75310034 -0.063358843 0.27283978 4278190080
0.7548998 -0.063358806 0.27305368 4278190080
0.75690031 -0.063358806 0.27309641 4278190080
0.75890011 -0.063358799 0.2731005 4278190080
0.7609005 -0.063358776 0.2731005 4278190080
0.76289994 -0.063358828 0.27310166 4278190080
0.7644999 -0.063358836 0.27313605 4278190080
0.63770002 -0.060914993 0.27239996 4278190080
0.6389004 -0.060915016 0.27239993 4278190080
0.6408999 -0.060915027 0.27239993 4278190080
0.64289993 -0.060914971 0.27239993 4278190080
0.64490026 -0.060915031 0.27242684 4278190080
0.6469 -0.060915027 0.27246773 4278190080
0.64889991 -0.060915016 0.27249864 4278190080
0.65090024 -0.060915031 0.27249965 4278190080
0.65264255 -0.060923316 0.27242726 4278190080
0.66346651 -0.06114585 0.27225268 4278190080
0.66477484 -0.061184313 0.27323601 4278190080
0.74157482 -0.061243746 0.27386251 4278190080
0.7427327 -0.061237212 0.27301401 4278190080
0.74416667 -0.061300006 0.27208334 4278190080
0.75309992 -0.061299998 0.27287489 4278190080
0.75489998 -0.061300009 0.27304187 4278190080
0.75690001 -0.061300002 0.27308393 4278190080
0.75889999 -0.061300009 0.27309993 4278190080
0.7608999 -0.061300006 0.27309993 4278190080
0.76290011 -0.061300002 0.27309993 4278190080
0.7644999 -0.061299998 0.2731266 4278190080
0.63770002 -0.059000004 0.27239999 4278190080
0.63889998 -0.059000012 0.27239993 4278190080
0.64090002 -0.059000012 0.27239993 4278190080
0.64289993 -0.059000012 0.27239993 4278190080
0.64490008 -0.059000012 0.27244398 4278190080
0.64689994 -0.059000012 0.272484 4278190080
0.64889997 -0.059000012 0.27250001 4278190080
0.65090007 -0.059000012 0.27250001 4278190080
0.65263331 -0.059000008 0.27241671 4278190080
0.66350991 -0.05932501 0.27221501 4278190080
0.6648159 -0.059310492 0.27320734 4278190080
0.74157012 -0.059097309 0.27382708 4278190080
0.74275774 -0.059108928 0.27296239 4278190080
0.7441532 -0.059140004 0.27208665 4278190080
0.7530998 -0.059146173 0.27289411 4278190080
0.75489998 -0.059146177 0.27300146 4278190080
0.75690031 -0.059146173 0.27303377 4278190080
0.75889993 -0.059146177 0.27309686 4278190080
0.76090008 -0.059146177 0.27309993 4278190080
0.76290023 -0.059146177 0.27309993 4278190080
0.76449984 -0.059146173 0.27309993 4278190080
0.63770002 -0.05726923 0.27239996 4278190080
0.63890004 -0.057269208 0.27239993 4278190080
0.6408999 -0.057269208 0.27239993 4278190080
0.64289987 -0.057269212 0.27239993 4278190080
0.64490014 -0.057269201 0.27243373 4278190080
0.64689994 -0.057269208 0.27248609 4278190080
0.64889991 -0.057269208 0.27249995 4278190080
0.65090001 -0.057269201 0.27249995 4278190080
0.65262175 -0.05726302 0.27242613 4278190080
0.66340607 -0.05732809 0.27220625 4278190080
0.66474444 -0.057376064 0.27319202 4278190080
0.74156654 -0.056717947 0.27382824 4278190080
0.74275023 -0.056714416 0.27298754 4278190080
0.74417496 -0.056774996 0.27208126 4278190080
0.7530998 -0.05674614 0.2728999 4278190080
0.7549001 -0.05674614 0.27299991 4278190080
0.75690025 -0.056746125 0.27299991 4278190080
0.75889993 -0.056746155 0.27305841 4278190080
0.76090002 -0.056746144 0.27309838 4278190080
0.76290023 -0.056746148 0.27309993 4278190080
0.76449984 -0.056746151 0.27309993 4278190080
0.63770002 -0.055371426 0.27239996 4278190080
0.63890022 -0.055371426 0.27239993 4278190080
0.64089996 -0.055371426 0.27239993 4278190080
0.64290005 -0.055371422 0.27239993 4278190080
0.64490026 -0.055371422 0.27241278 4278190080
0.64689994 -0.055371426 0.27246276 4278190080
0.64889991 -0.05537143 0.27249989 4278190080
0.65090007 -0.055371422 0.27249989 4278190080
0.65258515 -0.055353183 0.2724511 4278190080
0.6633867 -0.055311583 0.27221158 4278190080
0.66473466 -0.055305175 0.27320334 4278190080
0.74154854 -0.054556765 0.27380005 4278190080
0.74278879 -0.054579411 0.27292269 4278190080
0.74412656 -0.054426659 0.27206001 4278190080
0.7530998 -0.054400019 0.27288026 4278190080
0.75489986 -0.054400023 0.27299997 4278190080
0.75690031 -0.054400023 0.27299997 4278190080
0.75889981 -0.054400023 0.27300853 4278190080
0.76090002 -0.054400023 0.27308419 4278190080
0.76290029 -0.054400023 0.27309993 4278190080
0.76449984 -0.054400012 0.27309993 4278190080
0.63769966 -0.052939031 0.27239016 4278190080
0.6388998 -0.052939054 0.27239993 4278190080
0.64089972 -0.052939005 0.27239993 4278190080
0.64290005 -0.052939065 0.27239993 4278190080
0.64489961 -0.052939039 0.27240041 4278190080
0.64689988 -0.052939057 0.27243483 4278190080
0.64889997 -0.052939076 0.2724916 4278190080
0.65090007 -0.052939042 0.27249935 4278190080
0.65262562 -0.052939024 0.27243793 4278190080
0.66344231 -0.052913044 0.27223408 4278190080
0.66484851 -0.052906897 0.27324811 4278190080
0.74157739 -0.052797202 0.27384341 4278190080
0.74272627 -0.052806526 0.27299947 4278190080
0.74412292 -0.05274858 0.27205145 4278190080
0.75310028 -0.052715082 0.27290457 4278190080
0.7548998 -0.052715082 0.27299985 4278190080
0.75690019 -0.052715089 0.27299985 4278190080
0.75890011 -0.052715093 0.27300048 4278190080
0.76090044 -0.0527151 0.27305654 4278190080
0.76289999 -0.052715071 0.2730968 4278190080
0.76450002 -0.052715119 0.27309993 4278190080
0.63770002 -0.051373683 0.27238414 4278190080
0.63890034 -0.051373679 0.27239886 4278190080
0.64089984 -0.051373679 0.27239993 4278190080
0.64289999 -0.051373672 0.27239993 4278190080
0.64490026 -0.051373672 0.27240306 4278190080
0.64690012 -0.051373694 0.27243561 4278190080
0.64889985 -0.051373679 0.27248392 4278190080
0.65090024 -0.051373687 0.27249968 4278190080
0.65257621 -0.051366653 0.27246031 4278190080
0.66347355 -0.05124471 0.27222767 4278190080
0.66483158 -0.051218208 0.27322617 4278190080
0.7415663 -0.050883349 0.27381665 4278190080
0.74275023 -0.050887518 0.27292502 4278190080
0.74409992 -0.050919995 0.27203333 4278190080
0.7530998 -0.050850034 0.27290756 4278190080
0.7548998 -0.050850034 0.27300021 4278190080
0.75690025 -0.050850034 0.27300021 4278190080
0.75889999 -0.050850045 0.27300021 4278190080
0.76090026 -0.050850023 0.27303311 4278190080
0.76290023 -0.050850037 0.27308699 4278190080
0.76449972 -0.050850019 0.27309993 4278190080
0.63770002 -0.049058337 0.27237499 4278190080
0.63889998 -0.049058352 0.27239826 4278190080
0.64089996 -0.049058337 0.27239993 4278190080
0.64289981 -0.049058344 0.27239993 4278190080
0.64490014 -0.04905834 0.27239993 4278190080
0.6469 -0.049058355 0.27241495 4278190080
0.64889991 -0.049058352 0.27247164 4278190080
0.65090007 -0.04905834 0.27250001 4278190080
0.65254211 -0.049057901 0.27247372 4278190080
0.66345316 -0.048863329 0.27221 4278190080
0.66481829 -0.04885352 0.27321333 4278190080
0.74154764 -0.048976202 0.27374285 4278190080
0.742791 -0.048972722 0.27282181 4278190080
0.74410003 -0.048999999 0.27201432 4278190080
0.75309992 -0.049000014 0.27293435 4278190080
0.75490004 -0.049000017 0.27299985 4278190080
0.75689995 -0.049000017 0.27299985 4278190080
0.75889993 -0.049000017 0.27299985 4278190080
0.7608999 -0.049000017 0.27300486 4278190080
0.76290005 -0.049000017 0.27303737 4278190080
0.76450008 -0.04900001 0.27309993 4278190080
0.63770002 -0.046900004 0.27235714 4278190080
0.63890028 -0.046900015 0.27239993 4278190080
0.64089996 -0.046900004 0.27239993 4278190080
0.64289993 -0.046900008 0.27239993 4278190080
0.6449002 -0.046900004 0.27239993 4278190080
0.6469 -0.046900008 0.27240992 4278190080
0.64889985 -0.046900008 0.27246276 4278190080
0.65090013 -0.0469 0.27249989 4278190080
0.65256965 -0.046878248 0.27246308 4278190080
0.6634599 -0.046959996 0.27222499 4278190080
0.6648165 -0.046934888 0.27320701 4278190080
0.74155092 -0.047032561 0.27372798 4278190080
0.74278325 -0.047040712 0.27281231 4278190080
0.74410003 -0.047075003 0.27200004 4278190080
0.75309974 -0.046975009 0.27294371 4278190080
0.75489998 -0.046974983 0.27300006 4278190080
0.75690043 -0.046974991 0.27300006 4278190080
0.75889993 -0.046974994 0.27300006 4278190080
0.76089996 -0.046974976 0.27300006 4278190080
0.76290023 -0.046974983 0.27300629 4278190080
0.76449984 -0.046974991 0.27307907 4278190080
0.63770002 -0.044950005 0.27232498 4278190080
0.6389001 -0.044950005 0.27239326 4278190080
0.6408999 -0.044950008 0.27239993 4278190080
0.64289987 -0.044949997 0.27239993 4278190080
0.64490014 -0.044949997 0.27239993 4278190080
0.64689994 -0.044950005 0.27240327 4278190080
0.64889991 -0.044950008 0.27244166 4278190080
0.65090007 -0.044950008 0.27250001 4278190080
0.65254211 -0.044978946 0.27247632 4278190080
0.66349566 -0.045074467 0.27222127 4278190080
0.66482288 -0.04513596 0.27322978 4278190080
0.74159217 -0.04501538 0.27370378 4278190080
0.74269742 -0.044997215 0.27290559 4278190080
0.74409997 -0.045200001 0.27200001 4278190080
0.75309992 -0.045199994 0.27291781 4278190080
0.75490004 -0.045199994 0.27299988 4278190080
0.75690001 -0.045199994 0.27299988 4278190080
0.75889993 -0.045199994 0.27299988 4278190080
0.76089996 -0.045199994 0.27299988 4278190080
0.76290011 -0.045199994 0.27299988 4278190080
0.76450002 -0.045199994 0.27302852 4278190080
0.63770002 -0.042810004 0.27230996 4278190080
0.6389004 -0.04281 0.27237499 4278190080
0.64089984 -0.042810008 0.27239993 4278190080
0.64289999 -0.04281 0.27239993 4278190080
0.64490026 -0.042809993 0.27239993 4278190080
0.64689994 -0.042810008 0.27240092 4278190080
0.64889991 -0.04281 0.27241585 4278190080
0.65090013 -0.04281 0.27249065 4278190080
0.65258366 -0.04282238 0.27245668 4278190080
0.66349262 -0.043006029 0.27221805 4278190080
0.66481596 -0.043017369 0.27322993 4278190080
0.74155766 -0.043108057 0.27369514 4278190080
0.74274075 -0.043071501 0.27281204 4278190080
0.74409997 -0.043025002 0.27200001 4278190080
0.75309968 -0.043273669 0.27290133 4278190080
0.75489986 -0.043273646 0.27300018 4278190080
0.75690037 -0.043273661 0.27300018 4278190080
0.75889981 -0.043273665 0.27300018 4278190080
0.76090008 -0.043273665 0.27300018 4278190080
0.76290017 -0.043273665 0.27300018 4278190080
0.76449984 -0.043273687 0.2730051 4278190080
0.63769972 -0.041112497 0.27229986 4278190080
0.63889986 -0.041112538 0.27236062 4278190080
0.64089972 -0.041112531 0.27239943 4278190080
0.64289999 -0.041112531 0.27239993 4278190080
0.64489961 -0.041112527 0.27239993 4278190080
0.64689982 -0.041112542 0.27240041 4278190080
0.64889991 -0.041112546 0.27241185 4278190080
0.65090019 -0.041112538 0.27248445 4278190080
0.6525439 -0.041094512 0.27247596 4278190080
0.66350043 -0.041226104 0.27221397 4278190080
0.66481912 -0.041251417 0.27321628 4278190080
0.74156374 -0.041377343 0.2736623 4278190080
0.74275464 -0.04136914 0.27278632 4278190080
0.74409997 -0.041249998 0.27200001 4278190080
0.75310028 -0.041441672 0.272861 4278190080
0.75489992 -0.041441664 0.27297691 4278190080
0.75690019 -0.041441649 0.27299589 4278190080
0.75890028 -0.04144166 0.27299976 4278190080
0.76090056 -0.041441649 0.27299976 4278190080
0.76290005 -0.041441649 0.27299976 4278190080
0.76450002 -0.041441664 0.27300024 4278190080
0.63770002 -0.038630765 0.2723 4278190080
0.63890022 -0.038630761 0.27234456 4278190080
0.6408999 -0.038630765 0.27239686 4278190080
0.64289999 -0.038630765 0.27239993 4278190080
0.6449002 -0.038630757 0.27239993 4278190080
0.64689994 -0.038630757 0.27239993 4278190080
0.64889991 -0.038630761 0.272403 4278190080
0.65090007 -0.038630772 0.27246454 4278190080
0.65250003 -0.038630784 0.27250001 4278190080
0.66349119 -0.038839139 0.27219135 4278190080
0.66481948 -0.038836665 0.27318528 4278190080
0.74153978 -0.03895 0.27361196 4278190080
0.74280107 -0.038960446 0.27268139 4278190080
0.74409992 -0.039999999 0.27200001 4278190080
0.7530998 -0.038924996 0.27287367 4278190080
0.75490004 -0.038924988 0.2729339 4278190080
0.75690031 -0.038924988 0.27295402 4278190080
0.75889993 -0.038924985 0.27299011 4278190080
0.76090002 -0.038924988 0.27299717 4278190080
0.76290023 -0.038924988 0.27300021 4278190080
0.76449978 -0.038924996 0.27299985 4278190080
0.63770002 -0.03675 0.2723 4278190080
0.63890016 -0.036750004 0.27234986 4278190080
0.64089996 -0.036750011 0.27239659 4278190080
0.64289993 -0.036750004 0.27239993 4278190080
0.64490014 -0.036750015 0.27239993 4278190080
0.64689994 -0.036750015 0.27239993 4278190080
0.64889991 -0.036750015 0.27240327 4278190080
0.65090001 -0.036750015 0.27247831 4278190080
0.65249997 -0.03675 0.27250001 4278190080
0.66353804 -0.036847625 0.27220717 4278190080
0.66482908 -0.036916964 0.27318126 4278190080
0.74159628 -0.036837049 0.27362958 4278190080
0.74268943 -0.036850005 0.27278376 4278190080
0.75309998 -0.036700007 0.27286792 4278190080
0.75490004 -0.036700007 0.27291998 4278190080
0.75690001 -0.036700007 0.2729257 4278190080
0.75889999 -0.036700007 0.2729885 4278190080
0.76089996 -0.036700007 0.27299702 4278190080
0.76290011 -0.036700007 0.27299988 4278190080
0.76450002 -0.036700003 0.27299994 4278190080
0.63770002 -0.034626666 0.27230003 4278190080
0.63890022 -0.03462667 0.27234527 4278190080
0.6408999 -0.034626659 0.27239594 4278190080
0.64289999 -0.034626663 0.27239993 4278190080
0.6449002 -0.034626659 0.27239993 4278190080
0.6469 -0.034626666 0.27239993 4278190080
0.64889985 -0.034626655 0.27240792 4278190080
0.65090013 -0.034626655 0.27248514 4278190080
0.65249997 -0.034626655 0.27250001 4278190080
0.66354537 -0.034777265 0.2721636 4278190080
0.66488189 -0.034793936 0.27319458 4278190080
0.74151534 -0.034946155 0.27363333 4278190080
0.74281335 -0.034931518 0.27262059 4278190080
0.7530998 -0.034900013 0.27287993 4278190080
0.75489998 -0.034899991 0.27289981 4278190080
0.75690025 -0.034900017 0.27290249 4278190080
0.75889987 -0.034900006 0.27294654 4278190080
0.76089996 -0.034900002 0.27298 4278190080
0.76290029 -0.034899991 0.27299869 4278190080
0.76449984 -0.034900006 0.27299985 4278190080
0.63770002 -0.032985717 0.2723 4278190080
0.63890004 -0.032985721 0.27234277 4278190080
0.64090002 -0.032985717 0.27239421 4278190080
0.64289987 -0.032985717 0.27239993 4278190080
0.64490002 -0.032985717 0.27239993 4278190080
0.64689994 -0.032985717 0.27239993 4278190080
0.64889997 -0.032985721 0.27240279 4278190080
0.65090013 -0.032985721 0.27247429 4278190080
0.65249991 -0.032985721 0.27250001 4278190080
0.66357994 -0.032880008 0.27217001 4278190080
0.66490012 -0.032880943 0.27317709 4278190080
0.74155432 -0.032947734 0.27364993 4278190080
0.74274385 -0.032941718 0.27271301 4278190080
0.75309986 -0.032599993 0.2728892 4278190080
0.75490004 -0.032599986 0.27289981 4278190080
0.75690037 -0.032599978 0.27290842 4278190080
0.75889993 -0.032599993 0.27291128 4278190080
0.76090002 -0.032599989 0.27294129 4278190080
0.76290035 -0.032599997 0.27298278 4278190080
0.76449984 -0.032600004 0.27299985 4278190080
0.63769972 -0.031022493 0.27229986 4278190080
0.6388998 -0.031022549 0.2723099 4278190080
0.64089972 -0.031022537 0.27235913 4278190080
0.64289999 -0.031022534 0.27239791 4278190080
0.64489967 -0.031022537 0.27239993 4278190080
0.64689964 -0.031022532 0.27239993 4278190080
0.64889991 -0.031022524 0.27239993 4278190080
0.65090019 -0.03102253 0.27245313 4278190080
0.65253174 -0.031004801 0.27248195 4278190080
0.66355455 -0.030944876 0.272163 4278190080
0.66489929 -0.030909782 0.27316889 4278190080
0.74156743 -0.030814394 0.27366018 4278190080
0.74274433 -0.030809965 0.27275488 4278190080
0.74409992 -0.030999998 0.27200001 4278190080
0.75310045 -0.030763159 0.27286035 4278190080
0.75489998 -0.030763172 0.27289972 4278190080
0.75690019 -0.030763183 0.27289972 4278190080
0.75890005 -0.030763166 0.27289972 4278190080
0.76090038 -0.030763173 0.27290076 4278190080
0.76290017 -0.030763177 0.27292132 4278190080
0.76450008 -0.030763142 0.27298617 4278190080
0.63770002 -0.029461112 0.27229998 4278190080
0.63890034 -0.029461108 0.2723079 4278190080
0.6408999 -0.029461106 0.27235666 4278190080
0.64289999 -0.029461106 0.27239993 4278190080
0.64490026 -0.029461112 0.27239993 4278190080
0.6469 -0.029461106 0.27239993 4278190080
0.64889991 -0.029461106 0.27239993 4278190080
0.65090024 -0.029461106 0.27244872 4278190080
0.65251458 -0.029449083 0.27249277 4278190080
0.66356182 -0.029236367 0.27214363 4278190080
0.66490018 -0.029163919 0.27317318 4278190080
0.74155164 -0.029118529 0.27368149 4278190080
0.74278176 -0.029134516 0.27276969 4278190080
0.74410003 -0.028819999 0.27200004 4278190080
0.75309974 -0.029005017 0.27284107 4278190080
0.75489992 -0.029005026 0.27289975 4278190080
0.75690019 -0.029005015 0.27289975 4278190080
0.75889999 -0.029005008 0.27289975 4278190080
0.7609002 -0.029005015 0.27289975 4278190080
0.76290023 -0.029005 0.27290577 4278190080
0.76449984 -0.029005015 0.27293983 4278190080
0.63770002 -0.027366666 0.27230003 4278190080
0.63890022 -0.027366675 0.27230805 4278190080
0.6408999 -0.027366675 0.27235594 4278190080
0.64289993 -0.027366679 0.27239594 4278190080
0.6449002 -0.027366675 0.27239993 4278190080
0.64690006 -0.027366674 0.27239993 4278190080
0.64889985 -0.027366674 0.27239993 4278190080
0.65090007 -0.027366683 0.27246517 4278190080
0.65250003 -0.027366668 0.27250001 4278190080
0.66353148 -0.027289474 0.27216843 4278190080
0.66490012 -0.027281824 0.27320266 4278190080
0.74161303 -0.027273914 0.27369562 4278190080
0.74265653 -0.027295299 0.27291408 4278190080
0.74409997 -0.027000001 0.27200001 4278190080
0.75309998 -0.027000004 0.27286002 4278190080
0.75489992 -0.027000004 0.27290007 4278190080
0.75690001 -0.027000004 0.27290007 4278190080
0.75889993 -0.027000004 0.27290007 4278190080
0.76089996 -0.027000004 0.27290007 4278190080
0.76290011 -0.027000004 0.27290404 4278190080
0.76450002 -0.027000003 0.27293336 4278190080
0.63770002 -0.025407692 0.2723 4278190080
0.63890016 -0.025407704 0.27230147 4278190080
0.6408999 -0.025407704 0.27233532 4278190080
0.64289999 -0.025407687 0.27239224 4278190080
0.64490014 -0.025407683 0.27239993 4278190080
0.64689994 -0.0254077 0.27239993 4278190080
0.64889991 -0.025407689 0.27239993 4278190080
0.65090019 -0.025407689 0.27245995 4278190080
0.65250003 -0.025407702 0.27250001 4278190080
0.66351211 -0.025381634 0.27220404 4278190080
0.66484761 -0.025427042 0.27321482 4278190080
0.74151099 -0.025035849 0.27364716 4278190080
0.74274021 -0.025094766 0.2726922 4278190080
0.75309974 -0.025126658 0.27285159 4278190080
0.75489992 -0.025126666 0.27289981 4278190080
0.75690025 -0.02512667 0.27289981 4278190080
0.75889987 -0.025126666 0.27289981 4278190080
0.7608999 -0.025126662 0.27289981 4278190080
0.76290029 -0.025126673 0.27289981 4278190080
0.76449984 -0.02512667 0.27289993 4278190080
0.63770002 -0.023286669 0.27230003 4278190080
0.63890022 -0.023286665 0.27230003 4278190080
0.64089984 -0.023286667 0.27232268 4278190080
0.64289987 -0.023286663 0.27239326 4278190080
0.6449002 -0.023286663 0.27239993 4278190080
0.6469 -0.023286667 0.27239993 4278190080
0.64889991 -0.023286663 0.27239993 4278190080
0.65090013 -0.023286669 0.27245456 4278190080
0.65250003 -0.023286669 0.27250001 4278190080
0.66343129 -0.023382852 0.27223426 4278190080
0.66482049 -0.023374457 0.27324542 4278190080
0.74141401 -0.022846419 0.2736696 4278190080
0.74263209 -0.022864705 0.27271414 4278190080
0.75309986 -0.022799993 0.27283636 4278190080
0.7549001 -0.022800004 0.27289441 4278190080
0.75690025 -0.022799997 0.27289808 4278190080
0.75889987 -0.0228 0.27289987 4278190080
0.76089996 -0.022799999 0.27289987 4278190080
0.76290029 -0.0228 0.27289987 4278190080
0.7644999 -0.022799993 0.27290004 4278190080
0.63770002 -0.021016665 0.27229998 4278190080
0.63890028 -0.021016687 0.27230015 4278190080
0.64089984 -0.021016685 0.27231124 4278190080
0.64289999 -0.021016687 0.27238661 4278190080
0.64490032 -0.021016689 0.27239993 4278190080
0.64690006 -0.021016687 0.27239993 4278190080
0.64889991 -0.021016687 0.27239993 4278190080
0.65090013 -0.021016687 0.27245426 4278190080
0.65250009 -0.021016669 0.27250001 4278190080
0.66348118 -0.021038679 0.27224001 4278190080
0.66483957 -0.021015683 0.27325055 4278190080
0.74139541 -0.020703996 0.27365464 4278190080
0.74261147 -0.020709256 0.27267316 4278190080
0.7530998 -0.020826658 0.27286327 4278190080
0.75489998 -0.02082666 0.27289712 4278190080
0.75690031 -0.020826671 0.2728985 4278190080
0.75889987 -0.020826658 0.27289981 4278190080
0.76090008 -0.020826668 0.27289981 4278190080
0.76290035 -0.02082666 0.27289981 4278190080
0.76449984 -0.020826664 0.27289993 4278190080
0.63769972 -0.019327497 0.27229986 4278190080
0.63889986 -0.019327533 0.27230045 4278190080
0.64089984 -0.019327529 0.27230394 4278190080
0.64289999 -0.019327544 0.27236411 4278190080
0.64489967 -0.019327519 0.27239943 4278190080
0.6468997 -0.019327527 0.27239993 4278190080
0.64889985 -0.019327519 0.27239993 4278190080
0.65090019 -0.019327531 0.27243969 4278190080
0.65253186 -0.019340813 0.27248034 4278190080
0.66348559 -0.019269953 0.27221528 4278190080
0.66480964 -0.019292481 0.27322131 4278190080
0.74141192 -0.019319123 0.27362737 4278190080
0.7426126 -0.019318383 0.2726481 4278190080
0.75310034 -0.019403035 0.27282959 4278190080
0.75489974 -0.01940304 0.27288648 4278190080
0.75690019 -0.019403042 0.27288646 4278190080
0.75890011 -0.019403046 0.27289912 4278190080
0.76090038 -0.019403042 0.27289972 4278190080
0.76290005 -0.01940304 0.27289972 4278190080
0.76449996 -0.019403033 0.27289978 4278190080
0.63770002 -0.017019998 0.27230003 4278190080
0.63890022 -0.017020004 0.27230003 4278190080
0.64089984 -0.017020006 0.27230003 4278190080
0.64290005 -0.017019998 0.27233064 4278190080
0.64490026 -0.017020006 0.27239859 4278190080
0.6469 -0.017020004 0.27239993 4278190080
0.64889985 -0.01702 0.27239993 4278190080
0.65090019 -0.01702 0.27240926 4278190080
0.65250003 -0.017019998 0.27249113 4278190080
0.66346234 -0.016985934 0.27222189 4278190080
0.66476256 -0.016971104 0.27320543 4278190080
0.74140388 -0.017242024 0.27362317 4278190080
0.7426219 -0.017216658 0.27263328 4278190080
0.75309986 -0.017499994 0.27281258 4278190080
0.75489998 -0.017499991 0.27286988 4278190080
0.75690031 -0.017499993 0.27288136 4278190080
0.75889987 -0.017499993 0.27289981 4278190080
0.76089996 -0.017499991 0.27289981 4278190080
0.76290035 -0.017499993 0.27289981 4278190080
0.76449984 -0.017499994 0.27289996 4278190080
0.63770002 -0.015054544 0.2723 4278190080
0.63889998 -0.015054544 0.27229983 4278190080
0.64089996 -0.015054546 0.27229983 4278190080
0.64289987 -0.015054543 0.27233079 4278190080
0.64490026 -0.015054548 0.27239993 4278190080
0.6469 -0.015054546 0.27239993 4278190080
0.64889985 -0.015054545 0.27239993 4278190080
0.65090007 -0.015054545 0.27241629 4278190080
0.65249997 -0.015054544 0.27248487 4278190080
0.66346455 -0.014917639 0.27220589 4278190080
0.66477084 -0.0149196 0.27318135 4278190080
0.74138963 -0.015348982 0.27361026 4278190080
0.74268448 -0.015319742 0.27259341 4278190080
0.7530998 -0.015346156 0.27286336 4278190080
0.75489998 -0.015346158 0.27289677 4278190080
0.75690025 -0.015346159 0.27289984 4278190080
0.75889987 -0.015346158 0.27289984 4278190080
0.76089996 -0.015346158 0.27289984 4278190080
0.76290029 -0.015346157 0.27289984 4278190080
0.76449984 -0.015346157 0.27289996 4278190080
0.63770002 -0.012943751 0.2723 4278190080
0.63890028 -0.012943745 0.27230006 4278190080
0.6408999 -0.012943747 0.27230006 4278190080
0.64289993 -0.012943742 0.27234253 4278190080
0.64490026 -0.01294374 0.27239993 4278190080
0.64690006 -0.012943745 0.27239993 4278190080
0.64889991 -0.012943742 0.27239993 4278190080
0.65090013 -0.012943742 0.27243862 4278190080
0.65250003 -0.012943748 0.27250001 4278190080
0.66339976 -0.012791662 0.27222773 4278190080
0.66471654 -0.012777046 0.27321225 4278190080
0.74147755 -0.013061111 0.27360743 4278190080
0.742688 -0.013005098 0.27264383 4278190080
0.7530998 -0.012792851 0.27288201 4278190080
0.75489998 -0.012792851 0.27289981 4278190080
0.75690031 -0.012792851 0.27289981 4278190080
0.75889987 -0.01279285 0.27289981 4278190080
0.76089996 -0.012792851 0.27289981 4278190080
0.76290029 -0.012792849 0.27289981 4278190080
0.76449978 -0.012792854 0.27289996 4278190080
0.63770002 -0.010823077 0.2723 4278190080
0.63890016 -0.010823078 0.27229992 4278190080
0.64089996 -0.010823078 0.27230608 4278190080
0.64290005 -0.010823077 0.2723799 4278190080
0.6449002 -0.010823078 0.27239993 4278190080
0.6469 -0.010823076 0.27239993 4278190080
0.64889991 -0.010823077 0.27240145 4278190080
0.65090007 -0.010823077 0.27246302 4278190080
0.65250003 -0.010823081 0.27250001 4278190080
0.66336358 -0.01080435 0.27224928 4278190080
0.66473579 -0.010816073 0.27327499 4278190080
0.74150455 -0.011097672 0.27369535 4278190080
0.74262488 -0.01107922 0.27274284 4278190080
0.75309998 -0.010988886 0.27286667 4278190080
0.75489992 -0.010988886 0.27289769 4278190080
0.75690001 -0.010988886 0.27289993 4278190080
0.75890005 -0.010988886 0.27289993 4278190080
0.76089996 -0.010988886 0.27289993 4278190080
0.76290023 -0.010988886 0.27289993 4278190080
0.76449996 -0.010988886 0.27290007 4278190080
0.63769972 -0.0087184198 0.27229986 4278190080
0.63889986 -0.0087184263 0.27230045 4278190080
0.64089984 -0.0087184208 0.27230936 4278190080
0.64290011 -0.0087184273 0.27238214 4278190080
0.64489961 -0.0087184319 0.27239993 4278190080
0.6468997 -0.0087184273 0.27239993 4278190080
0.64889991 -0.0087184189 0.27239993 4278190080
0.65090019 -0.0087184217 0.27245802 4278190080
0.65249997 -0.0087184226 0.2724987 4278190080
0.66340882 -0.0087290546 0.27225003 4278190080
0.66479748 -0.0087261125 0.27329114 4278190080
0.74155551 -0.0089081936 0.27363932 4278190080
0.74265331 -0.0088849664 0.27270317 4278190080
0.7531004 -0.0089135142 0.27284119 4278190080
0.75489986 -0.0089135095 0.2728954 4278190080
0.75690025 -0.0089135114 0.27289701 4278190080
0.75889999 -0.0089135114 0.27289972 4278190080
0.76090044 -0.0089135095 0.27289972 4278190080
0.76290005 -0.0089135142 0.27289972 4278190080
0.7645002 -0.0089135123 0.27289975 4278190080
0.63770002 -0.0070100003 0.27229995 4278190080
0.6389004 -0.0070099975 0.27230021 4278190080
0.64089984 -0.007009998 0.27230918 4278190080
0.64289993 -0.0070099961 0.27237895 4278190080
0.64490026 -0.0070100003 0.27239993 4278190080
0.6469 -0.0070099956 0.27239993 4278190080
0.64889991 -0.007009998 0.27240092 4278190080
0.65090013 -0.0070099998 0.27244678 4278190080
0.65250009 -0.0070099961 0.27250001 4278190080
0.66339505 -0.0070464243 0.27223569 4278190080
0.6648404 -0.0070677032 0.27327329 4278190080
0.74137026 -0.0069632917 0.2736316 4278190080
0.74263257 -0.0069852159 0.27262267 4278190080
0.75309974 -0.0069736848 0.27285266 4278190080
0.75489998 -0.0069736838 0.27288932 4278190080
0.75690043 -0.0069736838 0.27289665 4278190080
0.75889999 -0.0069736838 0.27289978 4278190080
0.76090014 -0.0069736838 0.27289978 4278190080
0.76290017 -0.0069736838 0.27289978 4278190080
0.76449978 -0.0069736843 0.27289987 4278190080
0.63770002 -0.0050750002 0.2723 4278190080
0.63889992 -0.0050749993 0.27230236 4278190080
0.64089996 -0.0050749988 0.27233487 4278190080
0.64289987 -0.0050749988 0.27239743 4278190080
0.64490008 -0.0050749988 0.27239993 4278190080
0.64689982 -0.0050749988 0.27239993 4278190080
0.64889991 -0.0050749988 0.27239993 4278190080
0.65090001 -0.0050749988 0.27247 4278190080
0.65249997 -0.0050749988 0.27250001 4278190080
0.66343319 -0.0052629621 0.27224633 4278190080
0.66485816 -0.0053052637 0.27326754 4278190080
0.74145991 -0.0052000014 0.27364221 4278190080
0.74259597 -0.0052000009 0.27270845 4278190080
0.75309992 -0.0051999991 0.27290007 4278190080
0.75489998 -0.0051999991 0.27290002 4278190080
0.75689995 -0.0051999991 0.27290002 4278190080
0.75890005 -0.0051999991 0.27290002 4278190080
0.7608999 -0.0051999991 0.27290002 4278190080
0.76290011 -0.0051999991 0.27290002 4278190080
0.76450002 -0.0051999995 0.27290004 4278190080
0.63770002 -0.0031099999 0.27229995 4278190080
0.6389004 -0.0031100004 0.27232015 4278190080
0.6408999 -0.0031099988 0.27237901 4278190080
0.64289993 -0.0031099988 0.27239892 4278190080
0.64490026 -0.0031099997 0.27239993 4278190080
0.6469 -0.0031099997 0.27240092 4278190080
0.64889991 -0.0031099992 0.27241591 4278190080
0.65090019 -0.0031099992 0.27248767 4278190080
0.65250003 -0.0031099988 0.27250001 4278190080
0.6633808 -0.0031620252 0.2722556 4278190080
0.664805 -0.0031769187 0.27326569 4278190080
0.74147755 -0.0030037034 0.27366665 4278190080
0.74261451 -0.0030516484 0.27266479 4278190080
0.7530998 -0.0032230762 0.2728999 4278190080
0.75489998 -0.0032230748 0.27289984 4278190080
0.75690031 -0.0032230755 0.27289984 4278190080
0.75889987 -0.0032230748 0.27289984 4278190080
0.7608999 -0.0032230753 0.27289984 4278190080
0.76290017 -0.0032230755 0.27289984 4278190080
0.76449984 -0.0032230769 0.27289996 4278190080
0.63770002 -0.00077999989 0.27231002 4278190080
0.63890004 -0.00078000041 0.27234587 4278190080
0.64090002 -0.00078000023 0.27239993 4278190080
0.64289987 -0.00078000023 0.27239993 4278190080
0.64490008 -0.00078000018 0.27239993 4278190080
0.64689994 -0.00078000041 0.27240592 4278190080
0.64889991 -0.00078000023 0.27245197 4278190080
0.65090007 -0.00078000023 0.27249804 4278190080
0.65249997 -0.00078000018 0.27250001 4278190080
0.66343057 -0.00095000048 0.27223843 4278190080
0.66486377 -0.00096999924 0.27326187 4278190080
0.7413525 -0.000918868 0.27362263 4278190080
0.7426427 -0.00092465768 0.27260816 4278190080
0.75309986 -0.00085384626 0.2728999 4278190080
0.75489998 -0.00085384626 0.27289984 4278190080
0.75690025 -0.00085384585 0.27289984 4278190080
0.75889993 -0.00085384608 0.27289984 4278190080
0.76089996 -0.00085384632 0.27289984 4278190080
0.76290023 -0.0008538462 0.27289984 4278190080
0.76449978 -0.00085384591 0.27289996 4278190080
0.63770002 0.00083181815 0.27232721 4278190080
0.63890028 0.00083181891 0.27238727 4278190080
0.64089978 0.00083181832 0.27239993 4278190080
0.64290017 0.0008318185 0.27239993 4278190080
0.64490026 0.00083181798 0.27240354 4278190080
0.64690018 0.00083181838 0.27242529 4278190080
0.64889991 0.00083181856 0.27248779 4278190080
0.65090013 0.00083181832 0.27249959 4278190080
0.65250003 0.00083181867 0.27249992 4278190080
0.66338903 0.00089029135 0.2722339 4278190080
0.6648429 0.00090867333 0.27328575 4278190080
0.74137944 0.001140001 0.27364215 4278190080
0.7426306 0.0011377784 0.27266955 4278190080
0.7530998 0.0013315795 0.2728985 4278190080
0.75489992 0.0013315803 0.27289978 4278190080
0.75690043 0.0013315799 0.27289978 4278190080
0.75889987 0.0013315801 0.27289978 4278190080
0.76090002 0.0013315799 0.27289978 4278190080
0.76290041 0.0013315799 0.27290189 4278190080
0.76449978 0.0013315792 0.27292791 4278190080
0.63769972 0.0026725002 0.27237743 4278190080
0.63889986 0.002672503 0.27239841 4278190080
0.64089972 0.0026725028 0.27239993 4278190080
0.64290011 0.0026725018 0.27239993 4278190080
0.64489961 0.0026725021 0.27240488 4278190080
0.64689964 0.0026725039 0.27244714 4278190080
0.64889985 0.0026725037 0.27249837 4278190080
0.65090019 0.0026725023 0.27249938 4278190080
0.65249985 0.0026725004 0.27249956 4278190080
0.66338062 0.0026552097 0.27223316 4278190080
0.66481447 0.0026557455 0.27325708 4278190080
0.74138993 0.0027566354 0.27364841 4278190080
0.74260795 0.0027545134 0.27266064 4278190080
0.7531004 0.0028083359 0.27289975 4278190080
0.75489992 0.0028083373 0.27289972 4278190080
0.75690019 0.0028083378 0.27289972 4278190080
0.75890005 0.0028083371 0.27289972 4278190080
0.76090044 0.0028083364 0.27289915 4278190080
0.76290005 0.002808335 0.27290136 4278190080
0.76450002 0.002808335 0.27293694 4278190080
