ply
format ascii 1.0
comment PCL generated
element vertex 1071
property float x
property float y
property float z
property uchar rgb
element camera 0
property float view_px
property float view_py
property float view_pz
property float x_axisx
property float x_axisy
property float x_axisz
property float y_axisx
property float y_axisy
property float y_axisz
property float z_axisx
property float z_axisy
property float z_axisz
property float focal
property float scalex
property float scaley
property float centerx
property float centery
property int viewportx
property int viewporty
property float k1
property float k2
end_header
0.68350005 -0.071999997 0.27160001 4278190080
0.68441999 -0.071999997 0.2714 4278190080
0.68529999 -0.071999997 0.2714 4278190080
0.71676666 -0.071500003 0.27146667 4278190080
0.71749997 -0.071500003 0.271575 4278190080
0.71844292 -0.071500003 0.27164286 4278190080
0.71929997 -0.071500003 0.27160001 4278190080
0.72060001 -0.071500003 0.27155 4278190080
0.72149998 -0.071500003 0.27167499 4278190080
0.72250003 -0.071500003 0.27168331 4278190080
0.72350001 -0.071500003 0.27170002 4278190080
0.67663336 -0.070900001 0.27155 4278190080
0.67750001 -0.070900001 0.27149999 4278190080
0.67850006 -0.070900001 0.27153999 4278190080
0.67956668 -0.070900001 0.27169999 4278190080
0.68050003 -0.070900001 0.27160001 4278190080
0.68145996 -0.070900001 0.27153999 4278190080
0.68239999 -0.070900001 0.27144998 4278190080
0.72460002 -0.070500001 0.27167502 4278190080
0.72549999 -0.070500001 0.27177501 4278190080
0.72649997 -0.070500001 0.271725 4278190080
0.7277 -0.070500001 0.27169999 4278190080
0.72850001 -0.070500001 0.27175999 4278190080
0.72956675 -0.070500001 0.27180001 4278190080
0.73009998 -0.070600003 0.2714 4278190080
0.6717 -0.069899999 0.27169999 4278190080
0.67250001 -0.069959998 0.27166 4278190080
0.6735 -0.07 0.27175 4278190080
0.67449999 -0.07 0.27158335 4278190080
0.6753 -0.07 0.27160001 4278190080
0.73089999 -0.0691 0.27180001 4278190080
0.73150003 -0.069299996 0.27175 4278190080
0.73210001 -0.0691 0.2719 4278190080
0.7335 -0.0691 0.2719 4278190080
0.73409998 -0.069499999 0.27180001 4278190080
0.66890001 -0.068700001 0.2719 4278190080
0.66943336 -0.068700001 0.27176666 4278190080
0.67058003 -0.068700001 0.27174002 4278190080
0.67129999 -0.068700001 0.27160001 4278190080
0.66729999 -0.067699999 0.2719 4278190080
0.74469995 -0.067099996 0.27177501 4278190080
0.74549997 -0.067099996 0.27151251 4278190080
0.74650002 -0.067099996 0.27130833 4278190080
0.74739999 -0.067100003 0.27127501 4278190080
0.74842 -0.067100003 0.27129999 4278190080
0.74950004 -0.067100003 0.2714 4278190080
0.66152859 -0.066600002 0.27122858 4278190080
0.66246361 -0.06660001 0.2716091 4278190080
0.66151547 -0.065700002 0.27123079 4278190080
0.66250002 -0.065700017 0.2716524 4278190080
0.74476653 -0.065700002 0.27178332 4278190080
0.74550003 -0.065700002 0.27154377 4278190080
0.74650002 -0.065700017 0.27129585 4278190080
0.74747139 -0.065700002 0.27113572 4278190080
0.74819994 -0.065700002 0.27110001 4278190080
0.66154003 -0.064590007 0.2712 4278190080
0.66249996 -0.064583331 0.27164721 4278190080
0.74473065 -0.064676948 0.27178842 4278190080
0.74550021 -0.064673357 0.27154332 4278190080
0.74649996 -0.064673372 0.27128679 4278190080
0.74745244 -0.064633347 0.27115244 4278190080
0.74846929 -0.064623073 0.27113077 4278190080
0.7493 -0.064999998 0.27110001 4278190080
0.75030005 -0.064649999 0.27110001 4278190080
0.75209999 -0.064300001 0.27110001 4278190080
0.65374666 -0.063351676 0.27152675 4278190080
0.65457296 -0.063291892 0.27116492 4278190080
0.65533704 -0.063279077 0.27120006 4278190080
0.65638745 -0.06327498 0.27118576 4278190080
0.65758866 -0.063273899 0.27118981 4278190080
0.65859276 -0.063253574 0.27123043 4278190080
0.65949488 -0.063283741 0.27123743 4278190080
0.66051161 -0.063337989 0.27130321 4278190080
0.66153759 -0.063391931 0.27141812 4278190080
0.66245329 -0.063443422 0.27170539 4278190080
0.66313338 -0.063200004 0.27189997 4278190080
0.74471372 -0.063648865 0.27179766 4278190080
0.74550033 -0.063639142 0.27152172 4278190080
0.74648798 -0.063634351 0.27126575 4278190080
0.74742395 -0.063672416 0.27112418 4278190080
0.74816662 -0.063683338 0.27116665 4278190080
0.7493 -0.063742861 0.27110001 4278190080
0.75050008 -0.063685723 0.27111432 4278190080
0.75169998 -0.063600004 0.27110001 4278190080
0.65381819 -0.062909082 0.27147272 4278190080
0.65466666 -0.062899999 0.27113333 4278190080
0.655325 -0.062875003 0.2712625 4278190080
0.65643638 -0.062931806 0.27128637 4278190080
0.65764487 -0.062913783 0.27126208 4278190080
0.65855193 -0.062915996 0.27124804 4278190080
0.65954912 -0.06285511 0.27128783 4278190080
0.66052079 -0.062875666 0.27139097 4278190080
0.66155118 -0.06283576 0.27149343 4278190080
0.66248763 -0.062754326 0.27170244 4278190080
0.6631 -0.062899999 0.2719 4278190080
0.7446999 -0.062772721 0.27178639 4278190080
0.74550003 -0.062772721 0.27152273 4278190080
0.74650002 -0.062772714 0.27126062 4278190080
0.7474429 -0.062785722 0.27110717 4278190080
0.74844998 -0.062812492 0.27111253 4278190080
0.74950004 -0.062749997 0.27110001 4278190080
0.65329999 -0.061999999 0.27180001 4278190080
0.6609 -0.061999999 0.27110001 4278190080
0.66155457 -0.061836362 0.27124092 4278190080
0.66249031 -0.061868306 0.27165124 4278190080
0.74472213 -0.061799996 0.2718333 4278190080
0.74549991 -0.061799996 0.27155 4278190080
0.74649996 -0.061799999 0.27127999 4278190080
0.74736673 -0.061799999 0.27110001 4278190080
0.74809998 -0.061799999 0.2712 4278190080
0.75209999 -0.061799999 0.27110001 4278190080
0.65329999 -0.060633332 0.27186665 4278190080
0.66090006 -0.060399994 0.27110001 4278190080
0.66152859 -0.060605705 0.2712515 4278190080
0.6624788 -0.060656145 0.27165261 4278190080
0.74472213 -0.060800008 0.27183333 4278190080
0.74549997 -0.060800008 0.27157 4278190080
0.74647141 -0.060800012 0.27128571 4278190080
0.74730003 -0.060800005 0.27112001 4278190080
0.74849999 -0.060800001 0.2712 4278190080
0.74970001 -0.060800001 0.27110001 4278190080
0.75089997 -0.060800001 0.27110001 4278190080
0.75209999 -0.060800001 0.27110001 4278190080
0.66152865 -0.05989999 0.2711643 4278190080
0.66250008 -0.059900004 0.27162087 4278190080
0.74471533 -0.059700008 0.2718077 4278190080
0.74549997 -0.059700008 0.27155 4278190080
0.74650002 -0.059700005 0.2712571 4278190080
0.74735725 -0.059700005 0.27111432 4278190080
0.74829996 -0.059700001 0.27110001 4278190080
0.65329999 -0.059 0.2719 4278190080
0.6608429 -0.058985718 0.27111432 4278190080
0.66150802 -0.058940005 0.27124396 4278190080
0.66250008 -0.058938466 0.27164873 4278190080
0.66329998 -0.058899999 0.2719 4278190080
0.74471813 -0.058499996 0.27181816 4278190080
0.74550003 -0.058499996 0.27153334 4278190080
0.74647647 -0.058499996 0.27124703 4278190080
0.74738008 -0.058499999 0.27112001 4278190080
0.74829996 -0.058499999 0.27114999 4278190080
0.65329999 -0.0579 0.27186668 4278190080
0.66090006 -0.057900004 0.27111432 4278190080
0.66151536 -0.057899989 0.2712577 4278190080
0.662458 -0.057899978 0.27163944 4278190080
0.74473333 -0.05729999 0.27176666 4278190080
0.74549997 -0.05729999 0.27154285 4278190080
0.74648005 -0.057299983 0.27122501 4278190080
0.74738008 -0.057300001 0.27112001 4278190080
0.74829996 -0.057300001 0.27110001 4278190080
0.65329999 -0.056733329 0.27186665 4278190080
0.6608429 -0.056742854 0.27111432 4278190080
0.66151673 -0.056758333 0.27127501 4278190080
0.66242731 -0.056766666 0.27165452 4278190080
0.74471819 -0.056100007 0.27179089 4278190080
0.74550003 -0.056100007 0.27155834 4278190080
0.74650002 -0.056100003 0.27122223 4278190080
0.74730009 -0.0561 0.27110001 4278190080
0.74849999 -0.0561 0.27110001 4278190080
0.75129998 -0.0561 0.27110001 4278190080
0.65329999 -0.055799995 0.27180001 4278190080
0.6608429 -0.055799995 0.27111432 4278190080
0.66150701 -0.055755161 0.27128622 4278190080
0.66243851 -0.055746134 0.27166921 4278190080
0.65329999 -0.0548 0.27186665 4278190080
0.66090006 -0.054828573 0.27110001 4278190080
0.66150796 -0.054828003 0.27124402 4278190080
0.66241252 -0.054825015 0.2716375 4278190080
0.74470723 -0.054385189 0.27179632 4278190080
0.74550009 -0.054400004 0.27152506 4278190080
0.74650002 -0.054400012 0.27125719 4278190080
0.74742502 -0.05444999 0.27111253 4278190080
0.7489 -0.0548 0.27110001 4278190080
0.75129998 -0.054099999 0.27110001 4278190080
0.65329999 -0.053600002 0.27180001 4278190080
0.66082734 -0.053718183 0.27110913 4278190080
0.66150862 -0.053665213 0.2712675 4278190080
0.66245693 -0.05364307 0.27166614 4278190080
0.66329998 -0.053300001 0.2719 4278190080
0.74474001 -0.053300001 0.27177 4278190080
0.74550003 -0.053300004 0.27149168 4278190080
0.74647647 -0.053300008 0.27123529 4278190080
0.74730009 -0.053299997 0.27113333 4278190080
0.74809998 -0.053300001 0.27110001 4278190080
0.75209999 -0.053300001 0.2712 4278190080
0.65329993 -0.05260833 0.27185002 4278190080
0.66090006 -0.05256154 0.27110001 4278190080
0.66152221 -0.052618805 0.27123961 4278190080
0.66247499 -0.052602507 0.27165386 4278190080
0.74469972 -0.052585199 0.27180001 4278190080
0.74550033 -0.052585158 0.27149445 4278190080
0.74649495 -0.052589994 0.2712138 4278190080
0.74742633 -0.052521061 0.27111056 4278190080
0.65329993 -0.051649999 0.27184999 4278190080
0.66090006 -0.051614288 0.27110001 4278190080
0.66152316 -0.051618598 0.27124426 4278190080
0.66247731 -0.05160984 0.27164364 4278190080
0.66329998 -0.051800001 0.2719 4278190080
0.74469995 -0.0517 0.27174166 4278190080
0.74550003 -0.0517 0.27147499 4278190080
0.74650002 -0.0517 0.27121666 4278190080
0.74740005 -0.0517 0.27110001 4278190080
0.74809998 -0.0517 0.27114999 4278190080
0.65329999 -0.050600003 0.27183333 4278190080
0.66082001 -0.0506 0.27110001 4278190080
0.66153997 -0.050544996 0.27121001 4278190080
0.66248941 -0.050528962 0.27160001 4278190080
0.66329998 -0.050466668 0.27186665 4278190080
0.74460888 -0.05050908 0.27177274 4278190080
0.74550015 -0.050485704 0.27146071 4278190080
0.74644446 -0.050499987 0.27120563 4278190080
0.74735725 -0.050742857 0.27112859 4278190080
0.74809998 -0.050999999 0.27110001 4278190080
0.75209999 -0.050099999 0.27110001 4278190080
0.65329999 -0.049433336 0.27166668 4278190080
0.6609 -0.049400002 0.27110001 4278190080
0.66154349 -0.049395651 0.27122611 4278190080
0.66248 -0.049377486 0.27160749 4278190080
0.66329998 -0.0493 0.2719 4278190080
0.65329999 -0.048500001 0.27169999 4278190080
0.6609 -0.048349999 0.27110001 4278190080
0.66156673 -0.048380952 0.27121431 4278190080
0.66246921 -0.048353851 0.27161023 4278190080
0.74466467 -0.049000006 0.27173531 4278190080
0.74549997 -0.049000006 0.2714375 4278190080
0.74646193 -0.049000006 0.27117622 4278190080
0.74730003 -0.048999999 0.27110001 4278190080
0.65329999 -0.047400001 0.27163336 4278190080
0.6609 -0.047400001 0.27112001 4278190080
0.66150004 -0.047400001 0.27128571 4278190080
0.66243339 -0.047400001 0.27168334 4278190080
0.74466467 -0.047547065 0.27172941 4278190080
0.74550003 -0.04755 0.27141249 4278190080
0.74646193 -0.047547624 0.27116668 4278190080
0.65329999 -0.046399999 0.27167499 4278190080
0.66083336 -0.046499997 0.2711167 4278190080
0.66150868 -0.046634782 0.27124783 4278190080
0.66250014 -0.046649989 0.27165002 4278190080
0.66329998 -0.046999998 0.2719 4278190080
0.74460524 -0.046400007 0.27173162 4278190080
0.74550003 -0.046400007 0.27140623 4278190080
0.74646193 -0.046400007 0.27115718 4278190080
0.7475 -0.046399999 0.27110001 4278190080
0.75209999 -0.046399999 0.27110001 4278190080
0.65329999 -0.045499999 0.27177501 4278190080
0.66069996 -0.045499999 0.27110001 4278190080
0.66153163 -0.045647364 0.2712526 4278190080
0.66249996 -0.045681823 0.27163336 4278190080
0.66329998 -0.045899998 0.2719 4278190080
0.74452001 -0.045199994 0.27173001 4278190080
0.74549997 -0.045199994 0.27137145 4278190080
0.74635726 -0.045199994 0.27113572 4278190080
0.74730003 -0.045200001 0.27110001 4278190080
0.65329999 -0.044400003 0.27168334 4278190080
0.66074002 -0.044599999 0.27112001 4278190080
0.66154349 -0.044639125 0.27124348 4278190080
0.66248018 -0.044699978 0.27160498 4278190080
0.66329998 -0.0449 0.2719 4278190080
0.65329999 -0.0436 0.27176002 4278190080
0.66074002 -0.043499999 0.27112001 4278190080
0.66157097 -0.043583877 0.27123231 4278190080
0.66248745 -0.04354845 0.27159223 4278190080
0.66329998 -0.04355 0.2719 4278190080
0.74451989 -0.043550007 0.2717475 4278190080
0.74550015 -0.043550011 0.27139643 4278190080
0.74634296 -0.043550011 0.27115721 4278190080
0.74730003 -0.043099999 0.27110001 4278190080
0.65329999 -0.042212505 0.27183747 4278190080
0.6609 -0.042100001 0.27110001 4278190080
0.66152346 -0.042376462 0.2712059 4278190080
0.66250002 -0.042389978 0.27163002 4278190080
0.66329998 -0.042399999 0.2719 4278190080
0.74456149 -0.042499997 0.27176926 4278190080
0.74549997 -0.042499997 0.27142999 4278190080
0.74650002 -0.0425 0.27115333 4278190080
0.65330005 -0.041559093 0.2718364 4278190080
0.66155887 -0.041530494 0.27117544 4278190080
0.66250026 -0.041578561 0.27159476 4278190080
0.66329998 -0.041357141 0.27189997 4278190080
0.74451387 -0.041627381 0.2717512 4278190080
0.74550039 -0.041620683 0.27141902 4278190080
0.74644595 -0.041649994 0.27117565 4278190080
0.74730003 -0.041500002 0.27110001 4278190080
0.74809998 -0.041299999 0.27110001 4278190080
0.75209999 -0.041499998 0.27110001 4278190080
0.65329993 -0.040427271 0.27174544 4278190080
0.6615631 -0.040442094 0.27118951 4278190080
0.66248894 -0.040469851 0.27160549 4278190080
0.74451995 -0.040700004 0.27174002 4278190080
0.74549997 -0.040699996 0.27138573 4278190080
0.74632853 -0.040699996 0.27114999 4278190080
0.65329999 -0.039133329 0.27163336 4278190080
0.6615445 -0.03928889 0.27120003 4278190080
0.66248673 -0.039346673 0.27161998 4278190080
0.66329998 -0.0396 0.2719 4278190080
0.74453634 -0.039427269 0.27173027 4278190080
0.74550003 -0.039474998 0.27135831 4278190080
0.74632621 -0.039452173 0.27114353 4278190080
0.65329999 -0.038199995 0.27160001 4278190080
0.6609 -0.038199998 0.27110001 4278190080
0.66154766 -0.038333338 0.27123809 4278190080
0.66249996 -0.038384616 0.27159742 4278190080
0.66329998 -0.038600001 0.27186665 4278190080
0.74370003 -0.0381 0.2719 4278190080
0.74449992 -0.0381 0.27167502 4278190080
0.74549997 -0.0381 0.27129999 4278190080
0.74636668 -0.0381 0.27112001 4278190080
0.75209999 -0.0381 0.27110001 4278190080
0.65329999 -0.037300002 0.27163333 4278190080
0.6609 -0.037300002 0.27110001 4278190080
0.66158891 -0.037399992 0.27119443 4278190080
0.66249996 -0.037407696 0.27156416 4278190080
0.66329998 -0.037499998 0.27188334 4278190080
0.65329999 -0.036200002 0.27153334 4278190080
0.6609 -0.036600001 0.27110001 4278190080
0.66155893 -0.036341172 0.27122355 4278190080
0.66248947 -0.036421049 0.27157632 4278190080
0.66329998 -0.036600001 0.2719 4278190080
0.74449998 -0.036700003 0.27165717 4278190080
0.74550003 -0.036700003 0.2713286 4278190080
0.74626666 -0.036700003 0.27112502 4278190080
0.74730003 -0.036699999 0.2712 4278190080
0.66159999 -0.035600003 0.271175 4278190080
0.66250002 -0.035600003 0.27152216 4278190080
0.66329998 -0.035599999 0.2719 4278190080
0.74370003 -0.035599999 0.2719 4278190080
0.74449992 -0.035600003 0.27165836 4278190080
0.74550003 -0.035600003 0.27132499 4278190080
0.74631333 -0.035600003 0.27112669 4278190080
0.65329999 -0.034626666 0.27156666 4278190080
0.6609 -0.034200002 0.27110001 4278190080
0.66154242 -0.034630306 0.27119094 4278190080
0.66250002 -0.034561891 0.2715508 4278190080
0.66329998 -0.034366667 0.27188334 4278190080
0.74449986 -0.0341 0.27167621 4278190080
0.74549997 -0.0341 0.27135 4278190080
0.74631542 -0.0341 0.27113846 4278190080
0.74730003 -0.0341 0.27110001 4278190080
0.75209999 -0.0341 0.27114999 4278190080
0.65329999 -0.033100005 0.27153334 4278190080
0.66157997 -0.033120003 0.27118 4278190080
0.66250008 -0.033200011 0.27150837 4278190080
0.66329998 -0.033300001 0.27185002 4278190080
0.74449992 -0.033100005 0.27166668 4278190080
0.74550003 -0.033100005 0.27133572 4278190080
0.7462846 -0.033100005 0.27113846 4278190080
0.74730003 -0.033100002 0.27110001 4278190080
0.65329999 -0.032299999 0.27129999 4278190080
0.66162002 -0.032459997 0.27112001 4278190080
0.66250002 -0.032455564 0.2714704 4278190080
0.66329998 -0.032466665 0.27188334 4278190080
0.74449992 -0.032100003 0.27170953 4278190080
0.74549997 -0.032099996 0.27135 4278190080
0.74621999 -0.032099996 0.27114001 4278190080
0.65329999 -0.031679999 0.27155998 4278190080
0.66155869 -0.031573534 0.271153 4278190080
0.66249985 -0.031523332 0.27153549 4278190080
0.66329998 -0.031463638 0.27187273 4278190080
0.74449992 -0.031400006 0.271725 4278190080
0.74549997 -0.031399999 0.27138126 4278190080
0.74636668 -0.031399999 0.27113333 4278190080
0.65330005 -0.030640002 0.27174503 4278190080
0.66167533 -0.030522451 0.27117762 4278190080
0.6625002 -0.030549016 0.2715196 4278190080
0.6632998 -0.030470828 0.27187923 4278190080
0.74451339 -0.030579299 0.27171382 4278190080
0.74550033 -0.030593337 0.27134511 4278190080
0.7462616 -0.030604266 0.27112985 4278190080
0.74730003 -0.0305 0.27110001 4278190080
0.65329993 -0.029791668 0.27167499 4278190080
0.66155005 -0.029725006 0.27116251 4278190080
0.66250002 -0.029727781 0.27155557 4278190080
0.66329998 -0.029679999 0.2719 4278190080
0.74454212 -0.0297 0.27174738 4278190080
0.74549997 -0.029700002 0.27137142 4278190080
0.74636662 -0.029700004 0.27115333 4278190080
0.65329999 -0.0288 0.27166 4278190080
0.6609 -0.0288 0.27110001 4278190080
0.6615957 -0.028639138 0.27114788 4278190080
0.66250002 -0.028600013 0.27150923 4278190080
0.66329998 -0.028616669 0.27186665 4278190080
0.74460322 -0.028638709 0.27170968 4278190080
0.74550015 -0.028630765 0.27137306 4278190080
0.74628198 -0.0286 0.27113637 4278190080
0.65329999 -0.027899997 0.27158573 4278190080
0.6609 -0.0275 0.27110001 4278190080
0.66156673 -0.027595239 0.27117145 4278190080
0.66250014 -0.0275 0.27154049 4278190080
0.66329998 -0.027233332 0.27186668 4278190080
0.65329999 -0.026899997 0.27142498 4278190080
0.6609 -0.026900001 0.27110001 4278190080
0.6615001 -0.026899995 0.27125001 4278190080
0.66249996 -0.026899995 0.2716625 4278190080
0.74452859 -0.027000001 0.27169997 4278190080
0.74549997 -0.026999999 0.27130002 4278190080
0.74623328 -0.027000001 0.27113333 4278190080
0.75209999 -0.027000001 0.27129999 4278190080
0.65329999 -0.025999999 0.27149999 4278190080
0.66085005 -0.025987498 0.27110001 4278190080
0.66155261 -0.025963157 0.27124214 4278190080
0.66249996 -0.025950007 0.27160278 4278190080
0.66329998 -0.025900001 0.2719 4278190080
0.74449992 -0.025539992 0.27163336 4278190080
0.74548948 -0.02554737 0.27125266 4278190080
0.74624997 -0.025625002 0.27113751 4278190080
0.74769998 -0.025800001 0.27110001 4278190080
0.74809998 -0.0254 0.27110001 4278190080
0.65329999 -0.024900002 0.27149999 4278190080
0.66082001 -0.024900001 0.27110001 4278190080
0.66150737 -0.024948154 0.27123705 4278190080
0.66249996 -0.024949996 0.27164048 4278190080
0.74370003 -0.0243 0.2719 4278190080
0.74449998 -0.024300002 0.27152666 4278190080
0.74549991 -0.024299998 0.27118 4278190080
0.74610001 -0.0243 0.27110001 4278190080
0.75209999 -0.0243 0.27129999 4278190080
0.65329999 -0.023712501 0.27133751 4278190080
0.6609 -0.023800001 0.27113333 4278190080
0.66151935 -0.023825804 0.27124199 4278190080
0.66244662 -0.023859998 0.27163333 4278190080
0.74370003 -0.0233 0.2719 4278190080
0.74449992 -0.023299996 0.27149999 4278190080
0.74545991 -0.023299998 0.27114999 4278190080
0.74610001 -0.0233 0.27110001 4278190080
0.75209999 -0.0233 0.2712 4278190080
0.65329999 -0.0228 0.27142856 4278190080
0.6609 -0.0228 0.27116665 4278190080
0.66152406 -0.022800004 0.27122802 4278190080
0.66247994 -0.022800013 0.27166003 4278190080
0.74370003 -0.0222 0.27188 4278190080
0.74449992 -0.022199998 0.27152002 4278190080
0.74544996 -0.022200001 0.27114999 4278190080
0.65329999 -0.0219 0.27158001 4278190080
0.6609 -0.0218 0.27110001 4278190080
0.66153163 -0.021805262 0.27122107 4278190080
0.66248745 -0.021787498 0.27161875 4278190080
0.74370003 -0.021199999 0.27188748 4278190080
0.74449992 -0.021199999 0.27149582 4278190080
0.74550003 -0.021199999 0.27115628 4278190080
0.74610001 -0.021199999 0.27112502 4278190080
0.75209999 -0.021199999 0.2712 4278190080
0.65329993 -0.020676922 0.27145386 4278190080
0.6609 -0.020400001 0.27110001 4278190080
0.66155261 -0.02063158 0.27119216 4278190080
0.6624893 -0.020664014 0.27160531 4278190080
0.66329998 -0.020300001 0.2719 4278190080
0.74370003 -0.020400001 0.27189997 4278190080
0.74449992 -0.020399997 0.27152854 4278190080
0.74544543 -0.020400001 0.27121818 4278190080
0.74650002 -0.020400001 0.27110001 4278190080
0.75209999 -0.020400001 0.2712 4278190080
0.65330005 -0.019627273 0.27158639 4278190080
0.66154122 -0.019593548 0.27122152 4278190080
0.66249317 -0.01960546 0.27163041 4278190080
0.66329998 -0.019580003 0.27186 4278190080
0.74370003 -0.019592306 0.27186158 4278190080
0.74449956 -0.019592302 0.27150899 4278190080
0.74546915 -0.019611115 0.27119339 4278190080
0.74633336 -0.019724997 0.27115002 4278190080
0.75209999 -0.019200001 0.27129999 4278190080
0.65329993 -0.018724998 0.27131665 4278190080
0.66090006 -0.018771429 0.27111432 4278190080
0.6615563 -0.018620512 0.27125904 4278190080
0.66247904 -0.01860131 0.27162856 4278190080
0.74370003 -0.018700002 0.27182859 4278190080
0.74449986 -0.018700002 0.27146193 4278190080
0.74550003 -0.018700002 0.27117857 4278190080
0.74610001 -0.0187 0.27110001 4278190080
0.75209999 -0.0187 0.2712 4278190080
0.65329999 -0.0176 0.27132002 4278190080
0.66069996 -0.0176 0.27112502 4278190080
0.66152406 -0.017552001 0.27122802 4278190080
0.66246933 -0.017538462 0.27164102 4278190080
0.74370003 -0.017530771 0.27186921 4278190080
0.74449986 -0.017499993 0.27151671 4278190080
0.74548471 -0.017500002 0.27119616 4278190080
0.74610001 -0.017579999 0.27112001 4278190080
0.75209999 -0.017899999 0.2712 4278190080
0.65329999 -0.016499998 0.27136663 4278190080
0.66063333 -0.016483331 0.27110001 4278190080
0.66154009 -0.016471999 0.27122402 4278190080
0.66249144 -0.016455317 0.27165321 4278190080
0.65329999 -0.0156 0.27137497 4278190080
0.6609 -0.0156 0.27110001 4278190080
0.66155267 -0.015457896 0.27121583 4278190080
0.66250014 -0.015425 0.27164721 4278190080
0.74370003 -0.015900001 0.27189997 4278190080
0.74449998 -0.015900005 0.27155241 4278190080
0.74550003 -0.015900001 0.27120715 4278190080
0.74629998 -0.015900001 0.27110001 4278190080
0.75209999 -0.015900001 0.27125001 4278190080
0.65329999 -0.014599999 0.27122003 4278190080
0.6609 -0.0146 0.27110001 4278190080
0.66155267 -0.014489474 0.27125263 4278190080
0.66246361 -0.014436362 0.27163035 4278190080
0.74370003 -0.0147 0.2719 4278190080
0.74449992 -0.014699999 0.27161112 4278190080
0.74549991 -0.014699999 0.27126667 4278190080
0.74610001 -0.0147 0.27112001 4278190080
0.75209999 -0.0147 0.27129999 4278190080
0.65329999 -0.013359999 0.27147999 4278190080
0.66081119 -0.013333334 0.27112225 4278190080
0.66152221 -0.01331111 0.27126297 4278190080
0.66243851 -0.013284612 0.27163589 4278190080
0.74370003 -0.0132 0.2719 4278190080
0.74449992 -0.013237499 0.27162915 4278190080
0.74549997 -0.013237501 0.27127498 4278190080
0.74615717 -0.013242858 0.27111432 4278190080
0.75209999 -0.013275 0.27117503 4278190080
0.65329999 -0.0124 0.27145001 4278190080
0.66083336 -0.0124 0.27113333 4278190080
0.66152221 -0.012255555 0.27124074 4278190080
0.66243839 -0.012215386 0.27163851 4278190080
0.74370003 -0.0122 0.27187502 4278190080
0.74449992 -0.012199999 0.27159446 4278190080
0.74548173 -0.012199999 0.27129999 4278190080
0.74616665 -0.012199999 0.2711167 4278190080
0.75209999 -0.012200001 0.27143332 4278190080
0.66083336 -0.011366666 0.27110001 4278190080
0.661524 -0.011296 0.27126002 4278190080
0.66243333 -0.011266669 0.27167219 4278190080
0.74370003 -0.011100001 0.27189997 4278190080
0.74449992 -0.011099998 0.271575 4278190080
0.74548662 -0.011099999 0.2712 4278190080
0.74610001 -0.0111 0.27110001 4278190080
0.75209999 -0.0111 0.2714 4278190080
0.65329999 -0.0103 0.27135 4278190080
0.66078573 -0.0103 0.27112859 4278190080
0.66152614 -0.01031739 0.27126086 4278190080
0.66239339 -0.010313334 0.27162334 4278190080
0.74370003 -0.0101 0.2719 4278190080
0.74449998 -0.0101 0.27153334 4278190080
0.74529999 -0.0101 0.2712 4278190080
0.75209999 -0.0101 0.27110001 4278190080
0.65329999 -0.0093499999 0.27124998 4278190080
0.66080004 -0.0093499999 0.27113751 4278190080
0.66153324 -0.0093777794 0.27124172 4278190080
0.66246557 -0.0093586221 0.27165341 4278190080
0.74370003 -0.0095499996 0.27187496 4278190080
0.74449992 -0.0096727256 0.27155456 4278190080
0.74549049 -0.0096857138 0.27119523 4278190080
0.74619997 -0.0095499996 0.27110001 4278190080
0.75209999 -0.0097000003 0.2712 4278190080
0.65329993 -0.0084999995 0.27127144 4278190080
0.66090006 -0.0082999999 0.27110001 4278190080
0.66155046 -0.0085159121 0.27123752 4278190080
0.66243869 -0.0084979031 0.27162591 4278190080
0.74370003 -0.0086058825 0.2718412 4278190080
0.74449962 -0.0085923085 0.27152437 4278190080
0.74546915 -0.008597781 0.27120894 4278190080
0.74610001 -0.0085499994 0.27110001 4278190080
0.75209999 -0.0088200001 0.27127999 4278190080
0.65329999 -0.0074 0.2712875 4278190080
0.66085005 -0.0072500003 0.27112502 4278190080
0.66152692 -0.0073972954 0.27125677 4278190080
0.6624245 -0.0074282992 0.2716566 4278190080
0.66329998 -0.0071 0.2719 4278190080
0.74370003 -0.0075818179 0.27185452 4278190080
0.74449986 -0.0075818184 0.27148783 4278190080
0.74544114 -0.0076117655 0.27119413 4278190080
0.75209999 -0.0075499993 0.27114999 4278190080
0.65329999 -0.0062000002 0.2712 4278190080
0.6609 -0.0062000002 0.27114999 4278190080
0.661524 -0.0065120007 0.27121603 4278190080
0.66244596 -0.0065891887 0.27164871 4278190080
0.74370003 -0.0061374996 0.27187499 4278190080
0.74449998 -0.0061374996 0.27147081 4278190080
0.74543327 -0.0061249994 0.27117503 4278190080
0.75209999 -0.0061499993 0.27119997 4278190080
0.65329999 -0.0052 0.2712 4278190080
0.66080004 -0.0052 0.27112502 4278190080
0.66150743 -0.0055851843 0.27126667 4278190080
0.66245002 -0.0056799985 0.2716575 4278190080
0.74370003 -0.0052 0.27186668 4278190080
0.74449992 -0.0051999995 0.27146664 4278190080
0.74546665 -0.0051999995 0.27118334 4278190080
0.74610001 -0.0052 0.2712 4278190080
0.75209999 -0.0052 0.27127999 4278190080
0.6609 -0.0041999999 0.27110001 4278190080
0.66152507 -0.0047249999 0.27118751 4278190080
0.66248459 -0.0047538457 0.27165386 4278190080
0.65329999 -0.0034 0.27123332 4278190080
0.66073155 -0.0036684212 0.27112636 4278190080
0.66150516 -0.0036692317 0.27129236 4278190080
0.66241854 -0.0036816318 0.2716755 4278190080
0.74370003 -0.0040000002 0.27186668 4278190080
0.74449998 -0.0040000002 0.27147222 4278190080
0.74543327 -0.0040000002 0.27116668 4278190080
0.74769998 -0.0040000002 0.27110001 4278190080
0.75209999 -0.0040000002 0.27125001 4278190080
0.65329999 -0.0020999999 0.27110001 4278190080
0.66071332 -0.0022200001 0.27114001 4278190080
0.66150868 -0.0023347819 0.27132604 4278190080
0.66242009 -0.0023799993 0.27165663 4278190080
0.66329998 -0.0027000001 0.2719 4278190080
0.74370003 -0.0025571424 0.27189997 4278190080
0.74449992 -0.0025571429 0.27147141 4278190080
0.74546665 -0.0025666663 0.27113333 4278190080
0.75209999 -0.0025666663 0.2712 4278190080
0.65329999 -0.0011 0.27110001 4278190080
0.66076666 -0.0014 0.27113333 4278190080
0.66151339 -0.0015400001 0.27125999 4278190080
0.66246367 -0.0015909093 0.27165911 4278190080
0.74370003 -0.0015000001 0.27188334 4278190080
0.74449992 -0.0014999998 0.27147219 4278190080
0.74545991 -0.0015000001 0.27115002 4278190080
0.75209999 -0.0015 0.27129999 4278190080
0.65329999 -0.00069999998 0.27113333 4278190080
0.66067773 -0.00068888877 0.27116114 4278190080
0.66150737 -0.00065925927 0.27132219 4278190080
0.6624487 -0.00065128226 0.27166662 4278190080
0.74370003 -0.00029999999 0.27189997 4278190080
0.74449992 -0.00029999999 0.27149999 4278190080
0.74548459 -0.00029999999 0.27116922 4278190080
0.74610001 -0.00030000001 0.27110001 4278190080
0.75209999 -0.00029999999 0.27128336 4278190080
0.65329999 0.00074000005 0.27125996 4278190080
0.66068566 0.00050714286 0.27113932 4278190080
0.66151464 0.00042682927 0.27131227 4278190080
0.66240776 0.00039230756 0.27167886 4278190080
0.74370003 0.00059999997 0.27189997 4278190080
0.74449992 0.00059999997 0.27148888 4278190080
0.74548173 0.00059999997 0.27116367 4278190080
0.74610001 0.00060000003 0.27110001 4278190080
0.75209999 0.00059999997 0.27113336 4278190080
0.65329999 0.0016 0.27116668 4278190080
0.66073155 0.0015210524 0.27115792 4278190080
0.66150516 0.0014307688 0.27127182 4278190080
0.6624555 0.0013999997 0.27165928 4278190080
0.74370003 0.0016272727 0.27189997 4278190080
0.74449986 0.001669231 0.27150515 4278190080
0.74542636 0.0016631578 0.2711632 4278190080
0.74610001 0.0014 0.27110001 4278190080
0.75209999 0.0014 0.27118 4278190080
0.65329999 0.0023733333 0.27117336 4278190080
0.66069996 0.0023766661 0.27114841 4278190080
0.66150212 0.0024198187 0.2713027 4278190080
0.66242355 0.0024191507 0.27167523 4278190080
0.74370003 0.0024409089 0.27189094 4278190080
0.74449962 0.0024409094 0.27148634 4278190080
0.74544215 0.0024290327 0.27113551 4278190080
0.74650002 0.0024000001 0.27110001 4278190080
0.75209999 0.0027749999 0.2712 4278190080
0.65329999 0.0033999998 0.27124998 4278190080
0.65930003 0.0031000001 0.2712 4278190080
0.66070867 0.0033260868 0.27115655 4278190080
0.66150004 0.0032714282 0.27135479 4278190080
0.66241539 0.0032615378 0.27170384 4278190080
0.74370003 0.0034076923 0.27181536 4278190080
0.74449992 0.0033857138 0.27145714 4278190080
0.74541116 0.0033500004 0.27116668 4278190080
0.75209999 0.003433333 0.27135557 4278190080
0.65329999 0.0044 0.27129999 4278190080
0.66068178 0.0044318181 0.27114999 4278190080
0.66149998 0.0044150008 0.27129754 4278190080
0.66243845 0.0044288454 0.27165958 4278190080
0.74370003 0.0044999993 0.27181432 4278190080
0.74449992 0.0045000007 0.27139995 4278190080
0.74536663 0.0044999998 0.27113333 4278190080
0.75209999 0.0044999998 0.27122501 4278190080
0.65329999 0.0054000001 0.2712 4278190080
0.66062313 0.0054000011 0.27113077 4278190080
0.66150743 0.0057333331 0.27129257 4278190080
0.66244602 0.0057891887 0.27164596 4278190080
0.74365556 0.005688889 0.27178892 4278190080
0.74449992 0.0056875008 0.27136251 4278190080
0.7453571 0.0057000001 0.27111432 4278190080
0.75209999 0.0056833331 0.27143332 4278190080
0.65329999 0.0063 0.27110001 4278190080
0.66074002 0.0062999995 0.27114999 4278190080
0.66150004 0.0063 0.27140832 4278190080
0.66229993 0.0063 0.27174166 4278190080
0.74353999 0.0067000007 0.27179 4278190080
0.74449992 0.0067000012 0.27137777 4278190080
0.74529999 0.0066999998 0.27112502 4278190080
0.75209999 0.0067000003 0.27141666 4278190080
0.65329999 0.0076000001 0.27110001 4278190080
0.66063333 0.0075333333 0.27114445 4278190080
0.66150689 0.0073931026 0.27132758 4278190080
0.66239709 0.0073485724 0.27169713 4278190080
0.65329999 0.0083999997 0.27122501 4278190080
0.66076672 0.00832 0.27114666 4278190080
0.66150689 0.0082206884 0.27131721 4278190080
0.66243845 0.0081948694 0.27170771 4278190080
0.74350005 0.0080000004 0.27181247 4278190080
0.74449992 0.0080000004 0.27134165 4278190080
0.74537998 0.0080000004 0.27110001 4278190080
0.75209999 0.0080000004 0.27144998 4278190080
0.65329999 0.0094999997 0.27133334 4278190080
0.66075003 0.0094499998 0.27110001 4278190080
0.66150874 0.0094521716 0.27127391 4278190080
0.66246367 0.0094484836 0.27166972 4278190080
0.74350005 0.0091000004 0.27177501 4278190080
0.74448264 0.0091000022 0.27131742 4278190080
0.74529999 0.0091000004 0.27110001 4278190080
0.75209999 0.0091000004 0.27141428 4278190080
0.65329999 0.0104 0.27125001 4278190080
0.6609 0.0104 0.27110001 4278190080
0.66152215 0.010399999 0.27119997 4278190080
0.66250002 0.010399998 0.27163637 4278190080
0.74350005 0.0105 0.27173573 4278190080
0.74447995 0.0105 0.27127001 4278190080
0.75209999 0.0105 0.2714 4278190080
0.65329999 0.0114 0.27110001 4278190080
0.66157371 0.0114 0.27119473 4278190080
0.66249031 0.011400007 0.27158532 4278190080
0.66329998 0.0114 0.2719 4278190080
0.74350005 0.011299998 0.27175716 4278190080
0.74449992 0.011299998 0.27129522 4278190080
0.74529999 0.0113 0.27114999 4278190080
0.75209999 0.0113 0.27120003 4278190080
0.65329999 0.012499999 0.2712 4278190080
0.6609 0.012566666 0.27110001 4278190080
0.66156965 0.012448836 0.27118841 4278190080
0.66249985 0.012449998 0.27158329 4278190080
0.66329998 0.012385714 0.27188569 4278190080
0.74350011 0.012457141 0.27178574 4278190080
0.74449986 0.012457144 0.27130485 4278190080
0.74529999 0.01268 0.27112001 4278190080
0.75209999 0.012430768 0.27135384 4278190080
0.65330005 0.013365 0.27121502 4278190080
0.6608693 0.013576923 0.27110001 4278190080
0.66154134 0.013455682 0.27121133 4278190080
0.66247612 0.013426664 0.2716133 4278190080
0.66329998 0.0132 0.2719 4278190080
0.74349993 0.013391303 0.27179784 4278190080
0.74449962 0.013391298 0.27132756 4278190080
0.74529994 0.013333333 0.27110001 4278190080
0.75209999 0.013391303 0.27133915 4278190080
0.65329999 0.014199999 0.27123335 4278190080
0.66077822 0.014721737 0.27114785 4278190080
0.66151494 0.014566661 0.27130926 4278190080
0.66240287 0.014518561 0.27169147 4278190080
0.74354005 0.014199997 0.27178398 4278190080
0.74449986 0.014233334 0.2713289 4278190080
0.74529994 0.014285713 0.27110001 4278190080
0.75209999 0.014233331 0.27134663 4278190080
0.65329999 0.015699999 0.27110001 4278190080
0.66075003 0.015718749 0.27115628 4278190080
0.66149998 0.015746158 0.27138466 4278190080
0.66234612 0.015757697 0.27174231 4278190080
0.72170001 0.0152 0.27169999 4278190080
0.74351811 0.0153 0.27179998 4278190080
0.74449992 0.015300002 0.27132779 4278190080
0.74529999 0.0153 0.27110001 4278190080
0.75209999 0.015299999 0.27136669 4278190080
0.6606217 0.016660867 0.2712087 4278190080
0.66150004 0.016700001 0.27145001 4278190080
0.66227996 0.016729999 0.27178001 4278190080
0.74358571 0.0163 0.27177143 4278190080
0.74449998 0.016299997 0.27135998 4278190080
0.74529999 0.0163 0.27110001 4278190080
0.75209999 0.0163 0.27149999 4278190080
0.65329999 0.0177 0.27129999 4278190080
0.65969998 0.0177 0.27114999 4278190080
0.66055709 0.01775714 0.27119049 4278190080
0.66149998 0.0178 0.27143997 4278190080
0.66231054 0.017815789 0.27175787 4278190080
0.74362004 0.01781 0.27175999 4278190080
0.74449992 0.017787496 0.27134165 4278190080
0.74529999 0.017833332 0.27110001 4278190080
0.75209999 0.017787499 0.2716375 4278190080
0.65969998 0.0188 0.27110001 4278190080
0.6606499 0.018824998 0.27118126 4278190080
0.66150004 0.018835295 0.27144122 4278190080
0.66229999 0.018853333 0.27175668 4278190080
0.74351537 0.018900003 0.27179998 4278190080
0.74449992 0.018900003 0.27131432 4278190080
0.74543333 0.0189 0.27110001 4278190080
0.75209999 0.018899998 0.27177143 4278190080
0.65969998 0.0198 0.27110001 4278190080
0.66061431 0.019800004 0.2712 4278190080
0.6615001 0.019800002 0.27153331 4278190080
0.66215718 0.019799998 0.27180001 4278190080
0.74370003 0.019999998 0.27181432 4278190080
0.74449992 0.020000001 0.2713905 4278190080
0.74534994 0.019999998 0.27112502 4278190080
0.75209999 0.019999998 0.27168575 4278190080
0.66067994 0.020589996 0.271175 4278190080
0.66150004 0.020499999 0.27146247 4278190080
0.66222495 0.020424999 0.27176249 4278190080
0.66065997 0.02162 0.27118003 4278190080
0.66149998 0.021606253 0.27141249 4278190080
0.66227931 0.021596555 0.27176553 4278190080
0.74370003 0.021299999 0.27182001 4278190080
0.74450004 0.021299997 0.27143332 4278190080
0.74536663 0.021300001 0.27116668 4278190080
0.74610001 0.021299999 0.27110001 4278190080
0.75209999 0.021299999 0.27149999 4278190080
0.65969998 0.0228 0.27110001 4278190080
0.66059327 0.022803338 0.27118668 4278190080
0.66150004 0.022807147 0.27146068 4278190080
0.66221994 0.022820001 0.27176502 4278190080
0.74364287 0.022471428 0.27177146 4278190080
0.74449992 0.022483338 0.27141109 4278190080
0.7453571 0.022485716 0.27114287 4278190080
0.75209999 0.022483334 0.27175 4278190080
0.65969998 0.0239 0.27110001 4278190080
0.66055942 0.023625527 0.27122989 4278190080
0.66150004 0.023631575 0.27151307 4278190080
0.66218334 0.023625003 0.27179584 4278190080
0.74362946 0.023605885 0.27180591 4278190080
0.74449986 0.023592845 0.27139059 4278190080
0.74537504 0.023625001 0.27113751 4278190080
0.75209999 0.02359286 0.27159286 4278190080
0.65954 0.0243 0.27112001 4278190080
0.66059458 0.024555245 0.27121872 4278190080
0.6615001 0.024533348 0.27153501 4278190080
0.66220999 0.024513092 0.27181548 4278190080
0.74366254 0.024515629 0.27177188 4278190080
0.74449962 0.024503445 0.27138165 4278190080
0.74534816 0.024519999 0.27114001 4278190080
0.74610001 0.024399998 0.27111432 4278190080
0.75209999 0.024503451 0.27162412 4278190080
0.65329999 0.0254 0.27110001 4278190080
0.65969998 0.0254 0.27110001 4278190080
0.66061425 0.025471425 0.27123719 4278190080
0.66150647 0.02548709 0.27156129 4278190080
0.66220903 0.02549091 0.27181366 4278190080
0.74355453 0.025599997 0.2717818 4278190080
0.74449992 0.025599994 0.27135241 4278190080
0.74529999 0.025599997 0.27110001 4278190080
0.75209999 0.025599997 0.27166003 4278190080
0.65969998 0.0261 0.27110001 4278190080
0.6605587 0.026288224 0.27127358 4278190080
0.66149998 0.02631538 0.27162692 4278190080
0.66215003 0.0265 0.27182502 4278190080
0.74351811 0.026300002 0.27175453 4278190080
0.74449992 0.026300006 0.27127227 4278190080
0.74529999 0.0263 0.27110001 4278190080
0.75209999 0.0263 0.27175 4278190080
0.65964282 0.026999999 0.27112859 4278190080
0.66054195 0.027184213 0.27130795 4278190080
0.66149998 0.027207147 0.27165359 4278190080
0.66210002 0.027357142 0.27184287 4278190080
0.74351543 0.027200004 0.27168462 4278190080
0.74449986 0.027200004 0.2712667 4278190080
0.74529999 0.0272 0.27110001 4278190080
0.75209999 0.0272 0.27184999 4278190080
0.65890002 0.028000001 0.27110001 4278190080
0.65955448 0.028245455 0.27112728 4278190080
0.66049993 0.028409088 0.27135453 4278190080
0.66149998 0.028409088 0.27173635 4278190080
0.66210002 0.028560001 0.2719 4278190080
0.74290001 0.0284 0.2719 4278190080
0.74349999 0.028400002 0.27166668 4278190080
0.74430007 0.028400002 0.27125832 4278190080
0.75209999 0.028399998 0.27183333 4278190080
0.65890002 0.029100001 0.27110001 4278190080
0.65953642 0.029590905 0.27112731 4278190080
0.66049975 0.029664988 0.27134842 4278190080
0.66149485 0.029676914 0.27173075 4278190080
0.66213995 0.029789999 0.27188998 4278190080
0.74290001 0.0295 0.2719 4278190080
0.74350005 0.029500006 0.27165002 4278190080
0.74437499 0.029500006 0.27123126 4278190080
0.75209999 0.029500002 0.27178335 4278190080
0.65969998 0.0307 0.2712 4278190080
0.66052353 0.0307 0.27127647 4278190080
0.66150004 0.0307 0.27155831 4278190080
0.66223335 0.030700002 0.27185553 4278190080
0.74290001 0.0308 0.2719 4278190080
0.74350005 0.030799994 0.27162859 4278190080
0.74428463 0.030799994 0.27123076 4278190080
0.75209999 0.0308 0.27180001 4278190080
0.66056395 0.031407997 0.27121201 4278190080
0.66149998 0.031481829 0.27153635 4278190080
0.66224116 0.031511761 0.27181178 4278190080
0.74290007 0.0319 0.2719 4278190080
0.74350005 0.031899996 0.27159286 4278190080
0.74432856 0.031899996 0.27120712 4278190080
0.75209999 0.0319 0.27175 4278190080
0.66066664 0.03220417 0.27114168 4278190080
0.66149354 0.032390326 0.27138069 4278190080
0.6623919 0.032443237 0.27171621 4278190080
0.66082001 0.033240002 0.27110001 4278190080
0.66151816 0.033354551 0.27123639 4278190080
0.66250008 0.033391669 0.27161667 4278190080
0.66329998 0.033799998 0.27186665 4278190080
0.74290001 0.033550002 0.2719 4278190080
0.74349999 0.033526674 0.27165666 4278190080
0.74439991 0.033530567 0.27124727 4278190080
0.75209999 0.033576921 0.27184615 4278190080
0.6609 0.034500003 0.27110001 4278190080
0.6615665 0.034497432 0.2711744 4278190080
0.66249996 0.034594122 0.27150291 4278190080
0.6632998 0.034773916 0.2718783 4278190080
0.74349999 0.034599997 0.27173001 4278190080
0.74443847 0.034599997 0.27125385 4278190080
0.66166347 0.035602279 0.2711637 4278190080
0.66250485 0.035572991 0.27145791 4278190080
0.66332781 0.035531588 0.27184218 4278190080
0.74349988 0.035425927 0.27166289 4278190080
0.74436849 0.035432782 0.27124599 4278190080
0.75209999 0.035423998 0.271772 4278190080
0.66164291 0.036599997 0.2711857 4278190080
0.66248858 0.036511425 0.27146572 4278190080
0.66329998 0.036487501 0.2718375 4278190080
0.74290001 0.036400001 0.2719 4278190080
0.7435118 0.036376473 0.27168822 4278190080
0.74435997 0.036380004 0.27125999 4278190080
0.75209999 0.036366668 0.27184999 4278190080
0.66157693 0.037376925 0.27114618 4278190080
0.66250002 0.037349999 0.27150279 4278190080
0.66329998 0.037300002 0.27184999 4278190080
0.74290001 0.037999999 0.2719 4278190080
0.74350005 0.037614282 0.27163929 4278190080
0.7443074 0.03766666 0.27124447 4278190080
0.75209999 0.037639998 0.27185997 4278190080
0.66153532 0.038223531 0.27117062 4278190080
0.66249996 0.038246162 0.27154875 4278190080
0.66329998 0.0383 0.2719 4278190080
0.66155463 0.039409097 0.2712 4278190080
0.66246372 0.039293185 0.271575 4278190080
0.66329998 0.039099999 0.2719 4278190080
0.74290001 0.039000001 0.2719 4278190080
0.74350005 0.038999997 0.27163124 4278190080
0.74428666 0.038999997 0.27123335 4278190080
0.75209999 0.039000001 0.2719 4278190080
0.65289998 0.0405 0.2719 4278190080
0.6609 0.0405 0.27110001 4278190080
0.66155005 0.040499993 0.27118751 4278190080
0.66244489 0.0405 0.27159309 4278190080
0.74290001 0.040199999 0.2719 4278190080
0.74350005 0.040199999 0.27157497 4278190080
0.7442866 0.040199999 0.27120668 4278190080
0.75209999 0.040199999 0.27184999 4278190080
0.65345997 0.0418 0.27148002 4278190080
0.6541 0.0418 0.27110001 4278190080
0.65930003 0.0418 0.27110001 4278190080
0.66082001 0.0418 0.27114004 4278190080
0.66155601 0.041684002 0.27125606 4278190080
0.66243172 0.041626822 0.27162442 4278190080
0.66349995 0.0418 0.271525 4278190080
0.6645 0.041800003 0.27153334 4278190080
0.74290001 0.041499998 0.2719 4278190080
0.74350011 0.041499998 0.27162859 4278190080
0.74429995 0.041499998 0.27119288 4278190080
0.65354002 0.0427 0.27156001 4278190080
0.65442002 0.0427 0.27151999 4278190080
0.65550005 0.0427 0.27155 4278190080
0.65657997 0.0427 0.27158001 4278190080
0.65743333 0.042700004 0.27163336 4278190080
0.65860003 0.0427 0.27177501 4278190080
0.65954 0.0427 0.27174002 4278190080
0.66054004 0.042679995 0.27167004 4278190080
0.66150004 0.042550001 0.27135625 4278190080
0.66250002 0.042525005 0.27163753 4278190080
0.66350001 0.042600002 0.27150002 4278190080
0.66442001 0.0427 0.27174002 4278190080
0.66530001 0.0427 0.27160001 4278190080
0.66689998 0.0427 0.27180001 4278190080
0.6681 0.0427 0.2719 4278190080
0.67089999 0.0427 0.2719 4278190080
0.67129999 0.0427 0.2719 4278190080
0.67249995 0.042700004 0.2719 4278190080
0.6735 0.0427 0.2719 4278190080
0.74010003 0.0429 0.2719 4278190080
0.74156666 0.0429 0.27173334 4278190080
0.74250001 0.0429 0.27164999 4278190080
0.74349999 0.042874999 0.27168751 4278190080
0.74446368 0.042881817 0.27148181 4278190080
0.74549997 0.0429 0.27149999 4278190080
0.74650002 0.0429 0.27151665 4278190080
0.74750006 0.0429 0.27152503 4278190080
0.74849993 0.0429 0.27146664 4278190080
0.74950004 0.0429 0.27149999 4278190080
0.75042003 0.0429 0.27151999 4278190080
0.75150001 0.0429 0.27149999 4278190080
0.65969998 0.0438 0.27170002 4278190080
0.66049999 0.0438 0.27178335 4278190080
0.66149998 0.0438 0.27175 4278190080
0.66249996 0.0438 0.2719 4278190080
0.66349995 0.0438 0.2719 4278190080
0.6645 0.0438 0.2719 4278190080
0.66550004 0.0438 0.27184999 4278190080
0.66649997 0.0438 0.27186665 4278190080
0.66750002 0.0438 0.2719 4278190080
0.66850001 0.0438 0.27180001 4278190080
0.66949999 0.0438 0.27180001 4278190080
0.67049998 0.0438 0.27176666 4278190080
0.67149997 0.0438 0.27175 4278190080
0.67250007 0.0438 0.27169999 4278190080
0.6735 0.0438 0.27169999 4278190080
0.67409998 0.0438 0.27169999 4278190080
0.65976089 -0.074492857 0.2723785 4278190080
0.66050953 -0.074514367 0.27238569 4278190080
0.66150981 -0.074547 0.27239287 4278190080
0.66253036 -0.074543878 0.27239993 4278190080
0.66352963 -0.074559018 0.27239719 4278190080
0.6644991 -0.074552491 0.27239886 4278190080
0.66549689 -0.074569829 0.27239993 4278190080
0.66651577 -0.074561827 0.27240458 4278190080
0.66753292 -0.074575111 0.27240944 4278190080
0.6685102 -0.074565366 0.27240413 4278190080
0.66948146 -0.074577726 0.27240846 4278190080
0.67049485 -0.074572101 0.27240857 4278190080
0.67153722 -0.074581973 0.27240592 4278190080
0.67253417 -0.074573591 0.27240899 4278190080
0.67348814 -0.074582331 0.27240816 4278190080
0.67447025 -0.07457798 0.27241483 4278190080
0.67551982 -0.074585922 0.27241403 4278190080
0.67653388 -0.074579231 0.27241677 4278190080
0.67753774 -0.074586876 0.272414 4278190080
0.6785084 -0.074580185 0.27243403 4278190080
0.6795159 -0.074588493 0.27242526 4278190080
0.68054128 -0.074583188 0.27243292 4278190080
0.6815542 -0.074584991 0.27242759 4278190080
0.68250507 -0.074570671 0.27243331 4278190080
0.68345761 -0.074580416 0.27242494 4278190080
0.68449396 -0.074575007 0.27242836 4278190080
0.68554336 -0.07458099 0.27242333 4278190080
0.68653786 -0.074572645 0.27242252 4278190080
0.6874938 -0.074578911 0.27241254 4278190080
0.68849277 -0.074575007 0.27241483 4278190080
0.68954325 -0.074580975 0.27241191 4278190080
0.69053704 -0.074572667 0.27241194 4278190080
0.69154292 -0.074580982 0.27240461 4278190080
0.69250643 -0.074570663 0.27239636 4278190080
0.69350761 -0.074582219 0.2723954 4278190080
0.69453788 -0.074572623 0.27240172 4278190080
0.69554383 -0.074580997 0.27240548 4278190080
0.6965062 -0.074570715 0.27241588 4278190080
0.69745874 -0.074580416 0.27242264 4278190080
0.69849217 -0.074574992 0.27243367 4278190080
0.69953859 -0.074590005 0.27243116 4278190080
0.70054024 -0.074584045 0.27243307 4278190080
0.70148504 -0.074587241 0.27245671 4278190080
0.70248055 -0.074584387 0.27245387 4278190080
0.70356464 -0.074585199 0.27246928 4278190080
0.70455539 -0.074574791 0.27245986 4278190080
0.70555365 -0.074582614 0.27246636 4278190080
0.70650715 -0.074572779 0.27247441 4278190080
0.70750773 -0.074584052 0.27249464 4278190080
0.70855159 -0.074575111 0.27250376 4278190080
0.70955151 -0.074582383 0.27251115 4278190080
0.7104966 -0.074572794 0.27251858 4278190080
0.71149498 -0.074584074 0.27252996 4278190080
0.71254945 -0.074576139 0.27254599 4278190080
0.71355695 -0.074581876 0.27254778 4278190080
0.71454453 -0.074576177 0.27254835 4278190080
0.71550661 -0.074580655 0.27255437 4278190080
0.71650958 -0.074578084 0.27258202 4278190080
0.71754938 -0.074581884 0.27260375 4278190080
0.71854776 -0.074576512 0.27260929 4278190080
0.71950644 -0.074579947 0.27261189 4278190080
0.72045672 -0.074575424 0.27261865 4278190080
0.72150433 -0.074593291 0.27261981 4278190080
0.7225489 -0.074590363 0.27263907 4278190080
0.72355586 -0.074593246 0.27265105 4278190080
0.72450626 -0.074590035 0.2726613 4278190080
0.72552395 -0.074588187 0.27266082 4278190080
0.72654611 -0.074572437 0.2726841 4278190080
0.72755247 -0.074580766 0.27269202 4278190080
0.72854525 -0.074572422 0.27271217 4278190080
0.72948992 -0.074578077 0.27272955 4278190080
0.73048884 -0.074575379 0.27274853 4278190080
0.73155195 -0.074580811 0.27276057 4278190080
0.73254591 -0.074572429 0.27278864 4278190080
0.73349005 -0.074578092 0.27280128 4278190080
0.73448902 -0.07457535 0.27281362 4278190080
0.73554975 -0.074580722 0.27283314 4278190080
0.73654252 -0.07457459 0.27284768 4278190080
0.73754793 -0.074583858 0.27285072 4278190080
0.73850626 -0.074572541 0.27285254 4278190080
0.73950809 -0.074581794 0.27285284 4278190080
0.74053699 -0.074568331 0.27286577 4278190080
0.74155378 -0.07457485 0.27286905 4278190080
0.74253958 -0.074556381 0.27288604 4278190080
0.74345678 -0.074562803 0.27289483 4278190080
0.74445677 -0.074557245 0.27290046 4278190080
0.74553776 -0.074561954 0.27289969 4278190080
