# .PCD v0.7 - Point Cloud Data file format
VERSION 0.7
FIELDS x y z rgb
SIZE 4 4 4 4
TYPE F F F U
COUNT 1 1 1 1
WIDTH 1053
HEIGHT 1
VIEWPOINT 0 0 0 1 0 0 0
POINTS 1053
DATA ascii
0.80509979 -0.072862551 0.27309993 4278190080
0.8071 -0.072862543 0.27310365 4278190080
0.80910015 -0.072862551 0.27316859 4278190080
0.81110001 -0.072862558 0.27319977 4278190080
0.81309986 -0.072862551 0.27319977 4278190080
0.81510001 -0.072862551 0.27319977 4278190080
0.81710017 -0.072862566 0.27319977 4278190080
0.81909978 -0.072862573 0.27325246 4278190080
0.69330007 -0.071351312 0.27268714 4278190080
0.69510013 -0.071351327 0.27270028 4278190080
0.69709969 -0.071351357 0.27270028 4278190080
0.6990999 -0.071351342 0.27270028 4278190080
0.70109987 -0.07135129 0.27270028 4278190080
0.70310014 -0.071351357 0.27270028 4278190080
0.70429999 -0.071351342 0.27270001 4278190080
0.71590024 -0.071354538 0.27200606 4278190080
0.71671265 -0.071357086 0.27315918 4278190080
0.78947794 -0.071284913 0.27332649 4278190080
0.79050386 -0.07123924 0.27230656 4278190080
0.80389994 -0.071266681 0.27294284 4278190080
0.80509979 -0.071266554 0.27310076 4278190080
0.80710018 -0.071266562 0.27310076 4278190080
0.80910003 -0.071266577 0.27311921 4278190080
0.81109971 -0.071266562 0.27318928 4278190080
0.81310046 -0.071266569 0.27319688 4278190080
0.81510019 -0.071266577 0.27320018 4278190080
0.81709951 -0.071266577 0.27320018 4278190080
0.81910044 -0.071266577 0.27321738 4278190080
0.69330007 -0.069457166 0.27268404 4278190080
0.69509983 -0.069457166 0.27269715 4278190080
0.69709998 -0.069457166 0.27270001 4278190080
0.6991002 -0.069457203 0.27270001 4278190080
0.70109981 -0.069457166 0.27270001 4278190080
0.70309991 -0.069457188 0.27270001 4278190080
0.70429999 -0.069457136 0.27270004 4278190080
0.7159 -0.069281816 0.27202731 4278190080
0.71670461 -0.069457352 0.27315944 4278190080
0.78950018 -0.069062486 0.27342084 4278190080
0.79056698 -0.069066659 0.2723361 4278190080
0.80389988 -0.069033332 0.27307776 4278190080
0.80510002 -0.06903334 0.27309993 4278190080
0.8071 -0.069033332 0.27309993 4278190080
0.80910003 -0.06903334 0.27310213 4278190080
0.81109995 -0.06903334 0.27313995 4278190080
0.8131001 -0.06903334 0.27317777 4278190080
0.81509995 -0.069033325 0.27320001 4278190080
0.81709993 -0.06903334 0.27320001 4278190080
0.81910008 -0.06903334 0.27320224 4278190080
0.69329989 -0.067307688 0.27268469 4278190080
0.69509989 -0.067307711 0.27269849 4278190080
0.69709998 -0.067307696 0.27270007 4278190080
0.69910008 -0.067307703 0.27270007 4278190080
0.70109999 -0.067307726 0.27270007 4278190080
0.70309991 -0.067307696 0.27270007 4278190080
0.70429999 -0.067307696 0.27270004 4278190080
0.71590018 -0.067187496 0.27210417 4278190080
0.71671063 -0.067182906 0.27324209 4278190080
0.7894541 -0.067313984 0.2733314 4278190080
0.79047883 -0.067408524 0.27231914 4278190080
0.80389982 -0.067346148 0.27307689 4278190080
0.80509984 -0.067346133 0.27309993 4278190080
0.8071 -0.067346133 0.27309993 4278190080
0.80910015 -0.067346126 0.27309993 4278190080
0.81110001 -0.067346141 0.27309993 4278190080
0.81309992 -0.067346126 0.27313226 4278190080
0.81510001 -0.067346133 0.27317992 4278190080
0.81710017 -0.067346133 0.27319995 4278190080
0.81909984 -0.067346141 0.27319995 4278190080
0.69329995 -0.064721413 0.27264297 4278190080
0.69509995 -0.064721398 0.27266145 4278190080
0.69709998 -0.064721391 0.27269429 4278190080
0.69910014 -0.064721398 0.27270001 4278190080
0.70109975 -0.064721391 0.27270001 4278190080
0.70309991 -0.064721406 0.27270001 4278190080
0.70429999 -0.06472142 0.27270004 4278190080
0.71590018 -0.064723812 0.27212378 4278190080
0.71670014 -0.064775981 0.27323869 4278190080
0.78939253 -0.065294228 0.27320963 4278190080
0.79042739 -0.065290898 0.2721909 4278190080
0.80389988 -0.065299995 0.27304286 4278190080
0.80510014 -0.065299995 0.27309993 4278190080
0.8071 -0.065299995 0.27309993 4278190080
0.80909997 -0.065299995 0.27309993 4278190080
0.81110001 -0.065299995 0.27309993 4278190080
0.8131001 -0.065299995 0.27309993 4278190080
0.81510001 -0.065299995 0.2731171 4278190080
0.81709987 -0.065299995 0.27318287 4278190080
0.81910008 -0.065299995 0.27320001 4278190080
0.69329995 -0.062716641 0.27260008 4278190080
0.69509989 -0.062716641 0.27260345 4278190080
0.69710004 -0.062716648 0.27264675 4278190080
0.69909996 -0.062716648 0.27268678 4278190080
0.70109993 -0.062716626 0.27270013 4278190080
0.70309991 -0.062716633 0.27270013 4278190080
0.70429999 -0.06271667 0.27270004 4278190080
0.71590018 -0.062759265 0.27208143 4278190080
0.71669537 -0.06278675 0.27319631 4278190080
0.78934348 -0.063227847 0.27318752 4278190080
0.79031497 -0.063285194 0.27218518 4278190080
0.80389982 -0.06322857 0.27302143 4278190080
0.8050999 -0.063228555 0.27306998 4278190080
0.8071 -0.063228562 0.27309993 4278190080
0.80910015 -0.06322854 0.27309993 4278190080
0.81110001 -0.06322857 0.27309993 4278190080
0.81309992 -0.063228548 0.27309993 4278190080
0.81510007 -0.06322854 0.27310705 4278190080
0.81710017 -0.063228548 0.27317703 4278190080
0.81909978 -0.063228562 0.27319843 4278190080
0.69330013 -0.060699962 0.27260023 4278190080
0.69510043 -0.060699932 0.27260128 4278190080
0.6970998 -0.060699943 0.27261165 4278190080
0.69910002 -0.060699947 0.27266234 4278190080
0.70110005 -0.060699925 0.2727004 4278190080
0.70310026 -0.060700007 0.2727004 4278190080
0.70429999 -0.060700003 0.27270004 4278190080
0.7159003 -0.060847491 0.27201003 4278190080
0.71670568 -0.060718257 0.27312723 4278190080
0.78929937 -0.061011672 0.27321798 4278190080
0.7903052 -0.061005723 0.27219003 4278190080
0.80389982 -0.061005887 0.27299988 4278190080
0.80509979 -0.061005868 0.27301699 4278190080
0.8071 -0.061005894 0.27309459 4278190080
0.80910009 -0.061005868 0.2731005 4278190080
0.81110007 -0.061005872 0.2731005 4278190080
0.81310028 -0.061005924 0.2731005 4278190080
0.81510019 -0.061005894 0.2731005 4278190080
0.81709987 -0.061005879 0.27315199 4278190080
0.8191005 -0.061005894 0.27319822 4278190080
0.69329989 -0.059021402 0.2726019 4278190080
0.69509989 -0.059021406 0.27260011 4278190080
0.69709998 -0.059021391 0.27261296 4278190080
0.6991002 -0.059021398 0.27265576 4278190080
0.70109987 -0.059021406 0.27269715 4278190080
0.70309991 -0.059021391 0.27270001 4278190080
0.70429999 -0.059021432 0.27270004 4278190080
0.7159 -0.058975007 0.27200839 4278190080
0.71671152 -0.059117097 0.27310282 4278190080
0.78932887 -0.059222091 0.27321163 4278190080
0.79030019 -0.059207879 0.27218688 4278190080
0.80389982 -0.05910556 0.27296665 4278190080
0.80509955 -0.059105549 0.27300566 4278190080
0.80709976 -0.05910556 0.27307111 4278190080
0.80910009 -0.059105549 0.2730988 4278190080
0.81109995 -0.059105568 0.27309993 4278190080
0.81309998 -0.059105571 0.27309993 4278190080
0.81510007 -0.059105556 0.27309993 4278190080
0.81709999 -0.059105545 0.27313203 4278190080
0.81909996 -0.05910556 0.27318859 4278190080
0.69329995 -0.056866687 0.27260011 4278190080
0.69509983 -0.056866691 0.27260011 4278190080
0.69709998 -0.056866691 0.27260011 4278190080
0.69910002 -0.056866691 0.27260545 4278190080
0.70109981 -0.056866679 0.27264005 4278190080
0.70309985 -0.056866691 0.27268797 4278190080
0.70429999 -0.056866672 0.27266005 4278190080
0.71590006 -0.05685715 0.27203575 4278190080
0.71670014 -0.056972727 0.27316666 4278190080
0.78930533 -0.056770809 0.27315754 4278190080
0.79030013 -0.056948002 0.272172 4278190080
0.80389982 -0.05675 0.273 4278190080
0.8050999 -0.056749962 0.27299997 4278190080
0.8071 -0.05674997 0.27301425 4278190080
0.80910015 -0.056749973 0.27306855 4278190080
0.81110001 -0.056749966 0.27309993 4278190080
0.81309986 -0.05674997 0.27309993 4278190080
0.81510013 -0.056749966 0.27309993 4278190080
0.81710017 -0.056749966 0.27309993 4278190080
0.81909978 -0.056749959 0.2731528 4278190080
0.69329995 -0.054738469 0.27259818 4278190080
0.69510001 -0.054738458 0.27260011 4278190080
0.69710004 -0.054738466 0.27260011 4278190080
0.69910008 -0.054738469 0.27260011 4278190080
0.70109981 -0.054738469 0.27260011 4278190080
0.70310003 -0.054738462 0.27262473 4278190080
0.70429999 -0.054738458 0.2726154 4278190080
0.71590012 -0.055099998 0.27202669 4278190080
0.71668464 -0.055101309 0.27311152 4278190080
0.78927964 -0.055042852 0.27304691 4278190080
0.79029995 -0.055300001 0.27207142 4278190080
0.80389994 -0.054699998 0.273 4278190080
0.80510002 -0.054700006 0.27299991 4278190080
0.8071 -0.054700006 0.27299991 4278190080
0.80909997 -0.054700006 0.27305195 4278190080
0.81110007 -0.054700006 0.27309993 4278190080
0.81309998 -0.054700006 0.27309993 4278190080
0.81510001 -0.054700006 0.27309993 4278190080
0.81709999 -0.054700006 0.27309993 4278190080
0.81909996 -0.054700006 0.27313998 4278190080
0.69329995 -0.052666679 0.27259728 4278190080
0.69510001 -0.052666664 0.27260008 4278190080
0.69709998 -0.052666664 0.27260008 4278190080
0.6990999 -0.05266666 0.27260008 4278190080
0.70110011 -0.052666664 0.27260008 4278190080
0.70309985 -0.052666664 0.27260453 4278190080
0.70429999 -0.052666664 0.27251112 4278190080
0.7159 -0.052816663 0.27203336 4278190080
0.71670014 -0.052964788 0.27312523 4278190080
0.78929138 -0.052969199 0.27300936 4278190080
0.79030007 -0.052980006 0.27200669 4278190080
0.80389982 -0.052737493 0.273 4278190080
0.80509984 -0.052737493 0.27300006 4278190080
0.80709994 -0.052737486 0.27300006 4278190080
0.80910015 -0.052737493 0.27302128 4278190080
0.81110001 -0.052737486 0.27308744 4278190080
0.81309986 -0.052737482 0.27309865 4278190080
0.81510001 -0.052737486 0.27309993 4278190080
0.81710023 -0.052737482 0.27309993 4278190080
0.81909978 -0.052737482 0.27310616 4278190080
0.69330001 -0.051004983 0.27258882 4278190080
0.69509995 -0.051004976 0.27260014 4278190080
0.69709992 -0.051004924 0.27260014 4278190080
0.69910014 -0.051004972 0.27260014 4278190080
0.70109975 -0.051004987 0.27260014 4278190080
0.70309997 -0.051004954 0.27260014 4278190080
0.70429999 -0.051004998 0.272585 4278190080
0.71590018 -0.051170837 0.27202082 4278190080
0.71671033 -0.050906807 0.2731854 4278190080
0.78930944 -0.050792068 0.27318633 4278190080
0.79030019 -0.050781246 0.27208126 4278190080
0.80389982 -0.050676923 0.273 4278190080
0.80509984 -0.050676953 0.27299991 4278190080
0.80709988 -0.050676934 0.27299991 4278190080
0.80910009 -0.050676946 0.27299991 4278190080
0.81110001 -0.050676957 0.27303988 4278190080
0.81309986 -0.050676934 0.27308145 4278190080
0.81510001 -0.050676938 0.27309993 4278190080
0.81710017 -0.050676946 0.27309993 4278190080
0.81909984 -0.050676953 0.27309993 4278190080
0.69330019 -0.049308132 0.27258012 4278190080
0.69510013 -0.049308132 0.27259728 4278190080
0.69709969 -0.049308117 0.27259946 4278190080
0.69909996 -0.049308129 0.27259946 4278190080
0.70109987 -0.049308147 0.27259946 4278190080
0.70310026 -0.049308144 0.2726 4278190080
0.70429999 -0.049308117 0.27259737 4278190080
0.71590018 -0.049372002 0.27199996 4278190080
0.7167117 -0.049280271 0.27313656 4278190080
0.78936297 -0.049358148 0.27315515 4278190080
0.79029965 -0.04941475 0.27212134 4278190080
0.80389982 -0.049405281 0.27299726 4278190080
0.80509973 -0.049405295 0.2729997 4278190080
0.80710018 -0.049405258 0.2729997 4278190080
0.80910009 -0.049405281 0.27300024 4278190080
0.81109995 -0.049405318 0.2730082 4278190080
0.81310058 -0.049405273 0.27306044 4278190080
0.81510007 -0.049405299 0.27309746 4278190080
0.81709963 -0.049405269 0.27310064 4278190080
0.81910038 -0.049405273 0.27310064 4278190080
0.69329995 -0.047449972 0.2725594 4278190080
0.69509983 -0.047449976 0.2725901 4278190080
0.69709998 -0.047449984 0.27260011 4278190080
0.69910014 -0.047449961 0.27260011 4278190080
0.70109981 -0.04744998 0.27260011 4278190080
0.70309991 -0.047449972 0.27260137 4278190080
0.70429999 -0.047449995 0.27243125 4278190080
0.7159 -0.047199998 0.27205715 4278190080
0.71670461 -0.047370791 0.27305388 4278190080
0.78931594 -0.047260195 0.27313456 4278190080
0.79030013 -0.047494449 0.27211109 4278190080
0.80387127 -0.047050003 0.27295715 4278190080
0.8050999 -0.047061536 0.27299991 4278190080
0.80709994 -0.047061544 0.27299991 4278190080
0.80910015 -0.047061536 0.27299991 4278190080
0.81109995 -0.047061548 0.2730076 4278190080
0.81309992 -0.047061536 0.2730599 4278190080
0.81510019 -0.04706154 0.27309838 4278190080
0.81710011 -0.047061536 0.27309993 4278190080
0.81909984 -0.047061544 0.27309993 4278190080
0.69330001 -0.045386687 0.27252334 4278190080
0.69509977 -0.045386702 0.27255741 4278190080
0.69709998 -0.045386698 0.2725988 4278190080
0.6991002 -0.045386702 0.27260011 4278190080
0.70109993 -0.045386694 0.27260011 4278190080
0.70309997 -0.045386694 0.27260011 4278190080
0.70429999 -0.045392301 0.27239999 4278190080
0.71590012 -0.045193743 0.27204376 4278190080
0.7167052 -0.045125667 0.27312168 4278190080
0.78930038 -0.045152359 0.27308685 4278190080
0.79030001 -0.045114286 0.27204287 4278190080
0.80381107 -0.045133334 0.2728889 4278190080
0.80510008 -0.045228582 0.27299988 4278190080
0.80710006 -0.045228578 0.27299988 4278190080
0.80910003 -0.045228582 0.27299988 4278190080
0.81110001 -0.045228578 0.27300274 4278190080
0.81310004 -0.045228578 0.27303991 4278190080
0.81510001 -0.045228586 0.27309707 4278190080
0.81709993 -0.045228578 0.27309993 4278190080
0.81910002 -0.045228586 0.27309993 4278190080
0.69330001 -0.042931259 0.2725015 4278190080
0.69509983 -0.042931259 0.27250355 4278190080
0.69709998 -0.042931262 0.27254367 4278190080
0.69910008 -0.042931266 0.27259132 4278190080
0.70109987 -0.042931266 0.27260011 4278190080
0.70309979 -0.042931262 0.27260011 4278190080
0.70429999 -0.042864285 0.27233571 4278190080
0.71590006 -0.043028571 0.27202147 4278190080
0.71669996 -0.042921759 0.27313909 4278190080
0.78930014 -0.043321736 0.27302054 4278190080
0.79029995 -0.043266669 0.27204448 4278190080
0.80387318 -0.043320004 0.27294669 4278190080
0.80509979 -0.043357138 0.27299714 4278190080
0.8071 -0.043357141 0.27299997 4278190080
0.80910015 -0.043357134 0.27299997 4278190080
0.81110001 -0.043357134 0.27299997 4278190080
0.81309986 -0.043357126 0.27301139 4278190080
0.81510007 -0.043357126 0.27306139 4278190080
0.81710017 -0.043357138 0.27309993 4278190080
0.81909972 -0.043357134 0.27309993 4278190080
0.69329995 -0.040675011 0.27250001 4278190080
0.69509995 -0.040674992 0.27250001 4278190080
0.6971001 -0.040674996 0.27252501 4278190080
0.6990999 -0.040674996 0.27258345 4278190080
0.70109993 -0.040674992 0.27260011 4278190080
0.70309997 -0.040674992 0.27260011 4278190080
0.70429999 -0.040800001 0.27249998 4278190080
0.7159 -0.040570002 0.27205002 4278190080
0.71669507 -0.040977493 0.27307373 4278190080
0.78930002 -0.04115174 0.27299729 4278190080
0.79030001 -0.041338462 0.27204618 4278190080
0.80387634 -0.0409647 0.2728824 4278190080
0.80509984 -0.041000009 0.27296242 4278190080
0.80709994 -0.041000005 0.27299881 4278190080
0.80910015 -0.041000005 0.27300006 4278190080
0.81110001 -0.041000005 0.27300006 4278190080
0.81309998 -0.041000005 0.27300131 4278190080
0.81510001 -0.041000005 0.27302629 4278190080
0.81710005 -0.041000009 0.27309367 4278190080
0.81909972 -0.041000005 0.27309993 4278190080
0.69330007 -0.038829409 0.2724995 4278190080
0.69510001 -0.038829416 0.27249941 4278190080
0.69709969 -0.038829435 0.27250472 4278190080
0.6990999 -0.038829442 0.27255654 4278190080
0.70109993 -0.038829446 0.27259958 4278190080
0.7031002 -0.038829435 0.27259958 4278190080
0.70429999 -0.038766664 0.27237996 4278190080
0.7159003 -0.038730189 0.27207747 4278190080
0.71670026 -0.038894579 0.27310413 4278190080
0.78929937 -0.038881771 0.27300858 4278190080
0.79029995 -0.039124999 0.27200004 4278190080
0.80386275 -0.03878139 0.27286506 4278190080
0.80509955 -0.038802579 0.27291667 4278190080
0.8071003 -0.038802572 0.27299407 4278190080
0.80910003 -0.038802572 0.2729997 4278190080
0.81109977 -0.038802583 0.2729997 4278190080
0.81310058 -0.038802583 0.2729997 4278190080
0.81510001 -0.03880259 0.27300537 4278190080
0.81709963 -0.038802579 0.27307948 4278190080
0.8191005 -0.038802575 0.27309963 4278190080
0.69330007 -0.03745909 0.27249971 4278190080
0.69509989 -0.037459087 0.27249959 4278190080
0.69710004 -0.037459083 0.27249959 4278190080
0.69910008 -0.037459053 0.27253979 4278190080
0.70109993 -0.037459083 0.27259278 4278190080
0.70310003 -0.037459083 0.27260014 4278190080
0.70429999 -0.037686665 0.27242666 4278190080
0.71590024 -0.037472729 0.27204546 4278190080
0.71670747 -0.03741204 0.27314344 4278190080
0.78929985 -0.037360046 0.27301505 4278190080
0.79029995 -0.037377775 0.27200004 4278190080
0.80384988 -0.037350006 0.27284381 4278190080
0.80509984 -0.0374 0.27290127 4278190080
0.8071 -0.037399981 0.27297992 4278190080
0.80910015 -0.03739997 0.27299997 4278190080
0.81109995 -0.037399981 0.27299997 4278190080
0.8130998 -0.037399985 0.27299997 4278190080
0.81510007 -0.037399985 0.2730014 4278190080
0.81710017 -0.037399989 0.27304998 4278190080
0.81909984 -0.037399989 0.27308992 4278190080
0.69329995 -0.035057154 0.27250001 4278190080
0.69509983 -0.035057146 0.27249989 4278190080
0.69709998 -0.035057165 0.27249989 4278190080
0.69910008 -0.035057146 0.27251565 4278190080
0.70109987 -0.035057168 0.27256864 4278190080
0.70309991 -0.035057146 0.27259007 4278190080
0.70429999 -0.035277776 0.27228889 4278190080
0.71590018 -0.035180949 0.27207619 4278190080
0.71670961 -0.035190474 0.2731618 4278190080
0.78926665 -0.035076633 0.27296084 4278190080
0.79030007 -0.035133332 0.27200001 4278190080
0.80377996 -0.035204999 0.27277499 4278190080
0.80509979 -0.035342854 0.27289981 4278190080
0.8071 -0.035342846 0.272937 4278190080
0.80910009 -0.035342839 0.27299854 4278190080
0.81110001 -0.035342857 0.27299997 4278190080
0.81309986 -0.035342854 0.27299997 4278190080
0.81510001 -0.035342846 0.27299997 4278190080
0.81710017 -0.03534285 0.27302992 4278190080
0.81909972 -0.035342839 0.27308854 4278190080
0.69329995 -0.03290908 0.27250001 4278190080
0.69509989 -0.032909073 0.27250001 4278190080
0.69710004 -0.032909073 0.27250001 4278190080
0.69910002 -0.03290908 0.27250913 4278190080
0.70109999 -0.032909077 0.27253461 4278190080
0.70309985 -0.032909077 0.27258557 4278190080
0.70429999 -0.032850001 0.2721 4278190080
0.71590018 -0.03294545 0.27212271 4278190080
0.71670014 -0.032992598 0.27322212 4278190080
0.789244 -0.032860685 0.27294159 4278190080
0.80384654 -0.032919999 0.27284002 4278190080
0.8050999 -0.032846168 0.27289984 4278190080
0.8071 -0.03284616 0.27291527 4278190080
0.80910009 -0.032846164 0.27296913 4278190080
0.81109995 -0.032846179 0.27299991 4278190080
0.81309992 -0.03284616 0.27299991 4278190080
0.81510007 -0.032846153 0.27299991 4278190080
0.81710017 -0.032846168 0.27300453 4278190080
0.8190999 -0.03284616 0.27306762 4278190080
0.69329995 -0.030866662 0.27250001 4278190080
0.69510001 -0.030866662 0.27250001 4278190080
0.69710004 -0.03086666 0.27250001 4278190080
0.69909984 -0.030866666 0.27250001 4278190080
0.70110011 -0.03086666 0.27250892 4278190080
0.70309985 -0.030866666 0.27257341 4278190080
0.70429999 -0.0308 0.2723 4278190080
0.71590012 -0.031023527 0.27217647 4278190080
0.71670002 -0.03102353 0.27326867 4278190080
0.78930032 -0.031045455 0.27295452 4278190080
0.79030007 -0.031233333 0.27200001 4278190080
0.80381995 -0.030899998 0.27280003 4278190080
0.80510014 -0.030899998 0.27289996 4278190080
0.8071 -0.030899998 0.27290243 4278190080
0.80909997 -0.030899998 0.27295738 4278190080
0.81110001 -0.030899998 0.27299488 4278190080
0.81310004 -0.030899998 0.27299985 4278190080
0.81510001 -0.030899998 0.27299985 4278190080
0.81709987 -0.030899998 0.27300236 4278190080
0.81910008 -0.030899998 0.27306741 4278190080
0.69330001 -0.029028583 0.27249855 4278190080
0.69509983 -0.029028578 0.27249962 4278190080
0.69710004 -0.029028583 0.27249962 4278190080
0.69910002 -0.029028568 0.27249962 4278190080
0.70109969 -0.029028574 0.27250344 4278190080
0.70309985 -0.029028568 0.27255228 4278190080
0.7159003 -0.029072503 0.27210507 4278190080
0.71670014 -0.029113695 0.2732209 4278190080
0.78929412 -0.028824881 0.27299061 4278190080
0.79030001 -0.028453847 0.27200004 4278190080
0.80386645 -0.029004171 0.27286255 4278190080
0.80509967 -0.028981818 0.27289975 4278190080
0.80710006 -0.02898182 0.27289975 4278190080
0.80910009 -0.028981816 0.27295819 4278190080
0.81110013 -0.028981823 0.27300024 4278190080
0.81309992 -0.028981823 0.27299932 4278190080
0.81510001 -0.02898182 0.27300024 4278190080
0.81710023 -0.028981829 0.27300116 4278190080
0.81910014 -0.02898181 0.27305099 4278190080
0.69330007 -0.027429705 0.27249813 4278190080
0.69510013 -0.02742973 0.27249938 4278190080
0.69709957 -0.027429717 0.27249938 4278190080
0.69909996 -0.027429724 0.27249938 4278190080
0.70109993 -0.02742972 0.27250266 4278190080
0.70310026 -0.027429715 0.27254859 4278190080
0.70429999 -0.027027277 0.27233636 4278190080
0.7159003 -0.027315585 0.27205715 4278190080
0.71669304 -0.027323589 0.27316776 4278190080
0.78929943 -0.027180806 0.27302998 4278190080
0.79030019 -0.027284844 0.27199998 4278190080
0.80375677 -0.027245283 0.27278104 4278190080
0.80509961 -0.027229432 0.27289972 4278190080
0.80710012 -0.027229436 0.27290031 4278190080
0.80909997 -0.02722943 0.27295157 4278190080
0.81109995 -0.027229432 0.27299982 4278190080
0.81310028 -0.027229425 0.27299982 4278190080
0.8150999 -0.02722941 0.27299982 4278190080
0.81709981 -0.027229413 0.27300394 4278190080
0.81910044 -0.027229421 0.27304962 4278190080
0.69330001 -0.025129998 0.27247107 4278190080
0.69510001 -0.025129985 0.27249369 4278190080
0.69709992 -0.025129996 0.27249965 4278190080
0.69910002 -0.025129993 0.27249965 4278190080
0.70109987 -0.025129981 0.27249965 4278190080
0.70309973 -0.025129981 0.2725077 4278190080
0.70429999 -0.025620002 0.27215999 4278190080
0.71590024 -0.024933334 0.27207276 4278190080
0.71669632 -0.024892515 0.27312613 4278190080
0.78928244 -0.024740344 0.27298242 4278190080
0.79030001 -0.025024999 0.27200001 4278190080
0.80373985 -0.024775999 0.27278802 4278190080
0.80509984 -0.024786675 0.27289981 4278190080
0.80709994 -0.024786666 0.27290115 4278190080
0.80910015 -0.024786673 0.27295065 4278190080
0.81110001 -0.02478667 0.27300003 4278190080
0.81309986 -0.024786675 0.27300003 4278190080
0.81510001 -0.02478667 0.27300003 4278190080
0.81710023 -0.024786666 0.27300003 4278190080
0.81909978 -0.024786688 0.27305728 4278190080
0.69329995 -0.023 0.27242497 4278190080
0.69510001 -0.023 0.27247497 4278190080
0.69710004 -0.023 0.2724975 4278190080
0.6990999 -0.023 0.27250001 4278190080
0.70110005 -0.023 0.27250001 4278190080
0.70309997 -0.023 0.27250001 4278190080
0.70429999 -0.023 0.27200001 4278190080
0.71590012 -0.023033334 0.27206001 4278190080
0.71670014 -0.023037506 0.27312705 4278190080
0.78920937 -0.023051523 0.27299848 4278190080
0.79030001 -0.023 0.27200001 4278190080
0.80371535 -0.0231 0.2728 4278190080
0.80510014 -0.023100005 0.27290002 4278190080
0.8071 -0.023100005 0.27290002 4278190080
0.80910003 -0.023100005 0.27291715 4278190080
0.81110007 -0.023100005 0.27299705 4278190080
0.81309998 -0.023100005 0.27299988 4278190080
0.81510001 -0.023100005 0.27299988 4278190080
0.81709993 -0.023100005 0.27299988 4278190080
0.81910014 -0.023100005 0.27301991 4278190080
0.69329995 -0.021253329 0.27244329 4278190080
0.69509989 -0.021253331 0.27248916 4278190080
0.69710004 -0.021253331 0.27249849 4278190080
0.69910008 -0.021253334 0.27249983 4278190080
0.70109975 -0.02125334 0.27249983 4278190080
0.70309985 -0.021253331 0.27249983 4278190080
0.71590018 -0.02129231 0.27205384 4278190080
0.71670485 -0.021265879 0.27317756 4278190080
0.78920496 -0.021074463 0.27296704 4278190080
0.80371314 -0.021136662 0.27275002 4278190080
0.80509979 -0.021125007 0.27289981 4278190080
0.80709994 -0.021125004 0.27289981 4278190080
0.80910015 -0.021125006 0.27293363 4278190080
0.81110013 -0.021125007 0.27300006 4278190080
0.81309986 -0.021125 0.27299881 4278190080
0.81510007 -0.021125007 0.27300006 4278190080
0.81710017 -0.021125007 0.27300006 4278190080
0.81909978 -0.021125004 0.27304378 4278190080
0.69329995 -0.018858342 0.27245209 4278190080
0.69509995 -0.018858336 0.27250001 4278190080
0.69709998 -0.018858342 0.27250001 4278190080
0.69910008 -0.018858338 0.27250001 4278190080
0.70109999 -0.01885834 0.27250001 4278190080
0.70309991 -0.018858334 0.27250001 4278190080
0.71590018 -0.018915001 0.2721 4278190080
0.71670014 -0.018911991 0.27318135 4278190080
0.78924555 -0.01892546 0.27295274 4278190080
0.80373526 -0.018941177 0.27277648 4278190080
0.80510002 -0.018980011 0.2728999 4278190080
0.80709994 -0.018980011 0.2728999 4278190080
0.80909997 -0.018980011 0.27292788 4278190080
0.81110001 -0.018980011 0.27299786 4278190080
0.81309998 -0.018980011 0.27299583 4278190080
0.81510001 -0.018980011 0.27299985 4278190080
0.81710005 -0.018980011 0.27299985 4278190080
0.81909996 -0.018980011 0.27302986 4278190080
0.69330019 -0.016818596 0.27246818 4278190080
0.69510049 -0.016818574 0.27249748 4278190080
0.69709975 -0.016818579 0.27249935 4278190080
0.6990999 -0.016818602 0.27249935 4278190080
0.70110035 -0.016818609 0.27249935 4278190080
0.70310032 -0.016818579 0.2725012 4278190080
0.7159003 -0.016838882 0.27210009 4278190080
0.71669853 -0.016864829 0.27313736 4278190080
0.7892735 -0.016865594 0.27292085 4278190080
0.80371636 -0.01691447 0.27273932 4278190080
0.80509949 -0.016909758 0.27289969 4278190080
0.80710024 -0.016909756 0.27289969 4278190080
0.80910009 -0.016909756 0.272926 4278190080
0.81109977 -0.01690973 0.2729919 4278190080
0.8131004 -0.016909754 0.27299672 4278190080
0.81510001 -0.016909758 0.27299964 4278190080
0.81709969 -0.016909756 0.27299964 4278190080
0.8191005 -0.016909765 0.27303162 4278190080
0.69329995 -0.015276932 0.27244034 4278190080
0.69509989 -0.015276936 0.27247685 4278190080
0.6971001 -0.015276936 0.2724984 4278190080
0.69910002 -0.015276936 0.27249995 4278190080
0.70109987 -0.015276936 0.27249995 4278190080
0.70310003 -0.015276936 0.27250147 4278190080
0.71590024 -0.015349998 0.27217504 4278190080
0.71670026 -0.015371879 0.27317807 4278190080
0.78920335 -0.015148142 0.27294648 4278190080
0.80377269 -0.015122726 0.27280915 4278190080
0.80509979 -0.015140004 0.27289981 4278190080
0.80709982 -0.015140011 0.27289981 4278190080
0.80910015 -0.015140001 0.27291721 4278190080
0.81110013 -0.015140004 0.27298936 4278190080
0.81309986 -0.015140001 0.27299735 4278190080
0.81510007 -0.015140001 0.27300003 4278190080
0.81710017 -0.015140004 0.27300003 4278190080
0.81909972 -0.015140009 0.27303067 4278190080
0.69329989 -0.013361539 0.27242881 4278190080
0.69509995 -0.013361535 0.27248302 4278190080
0.69710004 -0.013361533 0.27249995 4278190080
0.69910008 -0.013361533 0.27249995 4278190080
0.70109987 -0.013361536 0.27249995 4278190080
0.70309979 -0.013361535 0.27249995 4278190080
0.71590018 -0.013284615 0.27216923 4278190080
0.7167002 -0.01328461 0.27322692 4278190080
0.78916973 -0.013119572 0.27290544 4278190080
0.80371648 -0.013099997 0.27279586 4278190080
0.8050999 -0.013146152 0.27289984 4278190080
0.80710006 -0.013146152 0.27289984 4278190080
0.80910015 -0.013146155 0.27293524 4278190080
0.81110001 -0.013146151 0.27299991 4278190080
0.81309986 -0.013146155 0.27299991 4278190080
0.81510013 -0.013146154 0.27299991 4278190080
0.81710017 -0.013146156 0.27299991 4278190080
0.81909978 -0.013146153 0.2730445 4278190080
0.69329989 -0.011292304 0.27242497 4278190080
0.69509995 -0.011292302 0.27247685 4278190080
0.69709992 -0.011292303 0.27249837 4278190080
0.69910008 -0.011292303 0.27249995 4278190080
0.70109993 -0.011292302 0.27249995 4278190080
0.70309997 -0.011292302 0.27249995 4278190080
0.71590018 -0.010918519 0.27225187 4278190080
0.71668988 -0.010935895 0.27327436 4278190080
0.78930038 -0.01118 0.27284741 4278190080
0.80371326 -0.011299998 0.27278668 4278190080
0.80510008 -0.011299998 0.27289996 4278190080
0.80709994 -0.011299998 0.27289996 4278190080
0.80909997 -0.011299998 0.27294496 4278190080
0.81110001 -0.011299998 0.27299985 4278190080
0.81310004 -0.011299998 0.27299985 4278190080
0.81510007 -0.011299998 0.27299985 4278190080
0.81709987 -0.011299998 0.27299985 4278190080
0.81910008 -0.011299998 0.27304238 4278190080
0.69329995 -0.008746664 0.27242497 4278190080
0.69509983 -0.008746665 0.27247718 4278190080
0.69710004 -0.008746664 0.27249983 4278190080
0.69910008 -0.008746665 0.27249983 4278190080
0.70109981 -0.0087466668 0.27249983 4278190080
0.70309979 -0.0087466612 0.27250117 4278190080
0.71590018 -0.0088590914 0.27224097 4278190080
0.71669996 -0.0088661751 0.27330884 4278190080
0.78920525 -0.0091015482 0.27291462 4278190080
0.80369979 -0.009362502 0.27279377 4278190080
0.80509979 -0.009362502 0.27289981 4278190080
0.8071 -0.0093625057 0.27289981 4278190080
0.80910015 -0.009362502 0.27294117 4278190080
0.81110001 -0.0093625011 0.27300006 4278190080
0.81309986 -0.0093624992 0.27300006 4278190080
0.81510007 -0.0093625011 0.27300006 4278190080
0.81710017 -0.009362502 0.27300006 4278190080
0.81909972 -0.0093625011 0.273045 4278190080
0.69330007 -0.00673 0.27243361 4278190080
0.69509995 -0.0067300028 0.27248168 4278190080
0.69709992 -0.006730001 0.27249762 4278190080
0.69910002 -0.0067299996 0.27249965 4278190080
0.70109975 -0.0067300005 0.27249965 4278190080
0.70309997 -0.0067300033 0.27249965 4278190080
0.71589077 -0.0069333315 0.27223089 4278190080
0.71669686 -0.0069057881 0.27326608 4278190080
0.78913051 -0.0067663006 0.27296042 4278190080
0.80369997 -0.006699997 0.27284127 4278190080
0.80509973 -0.0066999975 0.27289975 4278190080
0.80709994 -0.0066999979 0.27289975 4278190080
0.80909985 -0.0067000003 0.27293032 4278190080
0.81109977 -0.0067000021 0.27299938 4278190080
0.81310004 -0.0067000003 0.27299938 4278190080
0.81510019 -0.0066999984 0.27300027 4278190080
0.81709993 -0.0066999979 0.27300027 4278190080
0.81910008 -0.0067000012 0.27302802 4278190080
0.69330007 -0.005334375 0.27242482 4278190080
0.69510001 -0.0053343759 0.27247271 4278190080
0.69709975 -0.005334375 0.27249447 4278190080
0.69910008 -0.0053343731 0.27249944 4278190080
0.70109987 -0.0053343745 0.27249944 4278190080
0.70310009 -0.0053343722 0.27249944 4278190080
0.71589422 -0.0053060623 0.27219689 4278190080
0.7167002 -0.0053034117 0.27323154 4278190080
0.78928602 -0.0052199997 0.27288973 4278190080
0.80370051 -0.0051216199 0.27287418 4278190080
0.80509967 -0.0051216232 0.27289972 4278190080
0.80710018 -0.0051216246 0.27289972 4278190080
0.80910003 -0.0051216232 0.27292672 4278190080
0.81109965 -0.0051216232 0.27299106 4278190080
0.81310052 -0.0051216218 0.27299652 4278190080
0.81510019 -0.0051216241 0.27299973 4278190080
0.81709975 -0.0051216246 0.27299973 4278190080
0.81910044 -0.0051216269 0.27303019 4278190080
0.69329995 -0.0032312509 0.27241555 4278190080
0.69509983 -0.0032312509 0.27246985 4278190080
0.6971001 -0.0032312511 0.27248979 4278190080
0.69910014 -0.0032312511 0.27249977 4278190080
0.70109975 -0.0032312511 0.27249977 4278190080
0.70309985 -0.0032312511 0.27249977 4278190080
0.71590018 -0.0032888893 0.27216297 4278190080
0.71670014 -0.0032931035 0.27318385 4278190080
0.7891959 -0.0028567992 0.2729663 4278190080
0.80369985 -0.0025461535 0.27290007 4278190080
0.80509984 -0.0025461547 0.27289984 4278190080
0.80709994 -0.0025461537 0.27289984 4278190080
0.80910015 -0.0025461542 0.27290291 4278190080
0.81110001 -0.0025461542 0.27295679 4278190080
0.81309992 -0.0025461542 0.27298611 4278190080
0.81510001 -0.0025461544 0.27299991 4278190080
0.81710023 -0.0025461533 0.27299991 4278190080
0.81909984 -0.0025461544 0.27300301 4278190080
0.69329995 -0.00092499988 0.27240616 4278190080
0.69509983 -0.00092499994 0.27244729 4278190080
0.69710004 -0.000925 0.27249479 4278190080
0.69910014 -0.000925 0.27249977 4278190080
0.70109981 -0.00092500029 0.27249977 4278190080
0.70309985 -0.000925 0.27249977 4278190080
0.71590018 -0.00098461506 0.27211541 4278190080
0.71670479 -0.00092790701 0.27317089 4278190080
0.78923547 -0.00070129882 0.27292979 4278190080
0.80370009 -0.00079999992 0.27290002 4278190080
0.8051002 -0.00079999992 0.27290007 4278190080
0.8071 -0.00079999992 0.27290007 4278190080
0.80909997 -0.00079999992 0.27290809 4278190080
0.81110007 -0.00079999992 0.27298394 4278190080
0.81310004 -0.00079999992 0.27299592 4278190080
0.81510001 -0.00079999992 0.27299991 4278190080
0.81709993 -0.00079999992 0.27299991 4278190080
0.81910002 -0.00079999992 0.27300394 4278190080
0.69329995 0.0012714278 0.27239993 4278190080
0.69509983 0.0012714282 0.27240419 4278190080
0.69710004 0.0012714284 0.27244988 4278190080
0.69910008 0.0012714283 0.27249274 4278190080
0.70109993 0.0012714284 0.27249989 4278190080
0.70309991 0.0012714283 0.27249989 4278190080
0.71590018 0.0011600002 0.27214003 4278190080
0.71670002 0.0011599998 0.27321002 4278190080
0.7891891 0.00092539657 0.27295879 4278190080
0.80369997 0.00078571419 0.27290004 4278190080
0.80510008 0.00078571477 0.27290002 4278190080
0.80709994 0.00078571466 0.27290002 4278190080
0.80910003 0.00078571477 0.27291998 4278190080
0.81110001 0.00078571483 0.27298847 4278190080
0.81310004 0.00078571477 0.27299702 4278190080
0.81510007 0.00078571448 0.27299988 4278190080
0.81709987 0.00078571466 0.27299988 4278190080
0.81910008 0.00078571471 0.27301702 4278190080
0.69329989 0.0030124993 0.27239993 4278190080
0.69510001 0.0030124986 0.27241746 4278190080
0.69710004 0.0030124986 0.2724725 4278190080
0.6990999 0.0030124988 0.272495 4278190080
0.70110011 0.0030124988 0.27250001 4278190080
0.70309997 0.0030124986 0.27250001 4278190080
0.71590018 0.0026875001 0.27215835 4278190080
0.71670008 0.0026788744 0.27320141 4278190080
0.78918815 0.0027788987 0.27294302 4278190080
0.80369985 0.0027153844 0.27290007 4278190080
0.8050999 0.0027153846 0.27289984 4278190080
0.80709988 0.0027153825 0.27289984 4278190080
0.80910003 0.0027153858 0.27292758 4278190080
0.81110018 0.0027153841 0.27299684 4278190080
0.81309986 0.002715383 0.27299991 4278190080
0.81510007 0.0027153855 0.27299991 4278190080
0.81709999 0.0027153848 0.27299991 4278190080
0.81909978 0.0027153839 0.27301687 4278190080
0.69330019 0.0051000044 0.27239993 4278190080
0.69510031 0.0051000025 0.27240288 4278190080
0.69709986 0.0051000025 0.27244321 4278190080
0.69909996 0.0051000053 0.27248493 4278190080
0.70110023 0.0051000039 0.27249938 4278190080
0.70310026 0.0051000039 0.27249938 4278190080
0.7159003 0.0051325001 0.27216372 4278190080
0.71669686 0.0051310933 0.2731947 4278190080
0.78917938 0.0051858588 0.27292213 4278190080
0.80370063 0.0051634163 0.27289978 4278190080
0.80509961 0.0051634167 0.27289969 4278190080
0.80710042 0.0051634139 0.27290019 4278190080
0.80910021 0.0051634121 0.27295619 4278190080
0.81109977 0.0051634167 0.27299917 4278190080
0.81310052 0.0051634167 0.27299964 4278190080
0.81510019 0.0051634167 0.27299964 4278190080
0.81709969 0.0051634144 0.27299964 4278190080
0.81910044 0.00516342 0.27305585 4278190080
0.69330001 0.0069999993 0.27239993 4278190080
0.69510007 0.0070000044 0.27240324 4278190080
0.69709998 0.0070000025 0.27242067 4278190080
0.69910014 0.0070000007 0.27247378 4278190080
0.70109981 0.0070000039 0.27249956 4278190080
0.70310009 0.0070000063 0.27249956 4278190080
0.71589077 0.0069738096 0.27222383 4278190080
0.7167002 0.0069738026 0.27327621 4278190080
0.7892105 0.0070878058 0.27292669 4278190080
0.80369985 0.0073142848 0.27290007 4278190080
0.80509979 0.0073142853 0.27289981 4278190080
0.8071 0.0073142885 0.27289981 4278190080
0.80910015 0.0073142871 0.27296701 4278190080
0.81109995 0.0073142871 0.27299997 4278190080
0.8130998 0.0073142876 0.27299997 4278190080
0.81510007 0.0073142876 0.27299997 4278190080
0.81710017 0.0073142853 0.27300426 4278190080
0.81909972 0.0073142862 0.27306423 4278190080
0.69329995 0.009399998 0.27239993 4278190080
0.69509995 0.0093999933 0.27239993 4278190080
0.69710004 0.0093999952 0.27241421 4278190080
0.6991002 0.0093999943 0.272477 4278190080
0.70109981 0.0093999961 0.27249989 4278190080
0.70309991 0.0093999952 0.27249843 4278190080
0.71590018 0.0092250016 0.272295 4278190080
0.71670014 0.0092238057 0.27329686 4278190080
0.78923863 0.008818523 0.27293816 4278190080
0.80369997 0.0086999992 0.27290004 4278190080
0.80510008 0.0087000011 0.27290002 4278190080
0.8071 0.0087000011 0.27290002 4278190080
0.80909997 0.0087000011 0.27296561 4278190080
0.81110007 0.0087000011 0.27299988 4278190080
0.81309998 0.0087000011 0.27299988 4278190080
0.81510001 0.0087000011 0.27299988 4278190080
0.81709987 0.0087000011 0.27300847 4278190080
0.81910002 0.0087000011 0.27305704 4278190080
0.69329995 0.011099997 0.27239993 4278190080
0.69510001 0.011099996 0.27239993 4278190080
0.6971001 0.011099996 0.27240744 4278190080
0.6990999 0.011099996 0.27245501 4278190080
0.70110017 0.011099996 0.27250001 4278190080
0.70309997 0.011099996 0.2724975 4278190080
0.71590018 0.011033334 0.27220479 4278190080
0.71670008 0.011040623 0.27320156 4278190080
0.78914291 0.011046924 0.27295536 4278190080
0.80369979 0.010793334 0.27290007 4278190080
0.80509984 0.010793339 0.27289981 4278190080
0.8071 0.010793338 0.27289981 4278190080
0.80910021 0.010793334 0.27292788 4278190080
0.81110007 0.010793337 0.27299601 4278190080
0.81309986 0.010793339 0.27299869 4278190080
0.81509995 0.010793337 0.27300003 4278190080
0.81710023 0.010793337 0.27300003 4278190080
0.81909972 0.010793339 0.27302536 4278190080
0.69329989 0.012776927 0.27239993 4278190080
0.69509989 0.01277692 0.27239993 4278190080
0.69710022 0.012776918 0.272403 4278190080
0.6991002 0.012776921 0.27244914 4278190080
0.70109993 0.012776924 0.27249995 4278190080
0.70309991 0.012776919 0.27248761 4278190080
0.71590018 0.013048149 0.27224079 4278190080
0.7167002 0.013048139 0.27323201 4278190080
0.78909087 0.013291764 0.27298349 4278190080
0.80369991 0.013200002 0.27290007 4278190080
0.8050999 0.0132 0.27289984 4278190080
0.80709988 0.013199999 0.27289984 4278190080
0.80910009 0.013200001 0.27293837 4278190080
0.81109995 0.0132 0.27299839 4278190080
0.81309986 0.013199999 0.27299836 4278190080
0.81510007 0.0132 0.27299839 4278190080
0.81710011 0.013200002 0.27299991 4278190080
0.8190999 0.013200001 0.27302608 4278190080
0.69330001 0.015136841 0.27239993 4278190080
0.69509983 0.015136843 0.27239993 4278190080
0.69710004 0.015136844 0.27239993 4278190080
0.69910014 0.015136842 0.27245769 4278190080
0.70109975 0.015136839 0.27249968 4278190080
0.70309985 0.015136843 0.27248287 4278190080
0.7158888 0.015171424 0.27231991 4278190080
0.71670014 0.015156424 0.27335241 4278190080
0.78921336 0.015228999 0.27295566 4278190080
0.80369979 0.015293335 0.27290007 4278190080
0.8050999 0.015293331 0.27289981 4278190080
0.80709994 0.01529333 0.27289981 4278190080
0.80910015 0.015293335 0.27293718 4278190080
0.81110001 0.015293331 0.27299869 4278190080
0.8130998 0.015293331 0.27300003 4278190080
0.81510007 0.01529333 0.27300003 4278190080
0.81710023 0.015293331 0.27300003 4278190080
0.81909972 0.015293328 0.27303997 4278190080
0.69330013 0.016724324 0.27239993 4278190080
0.69510019 0.016724333 0.27239993 4278190080
0.69709969 0.016724333 0.27240047 4278190080
0.6990999 0.016724333 0.27245206 4278190080
0.70109987 0.016724346 0.27249885 4278190080
0.70310014 0.016724329 0.27249348 4278190080
0.7159003 0.016711535 0.27225509 4278190080
0.71670014 0.016719926 0.27327007 4278190080
0.78919244 0.016719827 0.27297467 4278190080
0.80370051 0.016669443 0.27289981 4278190080
0.80509984 0.016669437 0.27289972 4278190080
0.80710024 0.016669445 0.27289972 4278190080
0.80910009 0.016669432 0.27291971 4278190080
0.81109995 0.016669435 0.27299309 4278190080
0.81310046 0.016669441 0.27299589 4278190080
0.81509995 0.016669426 0.27299976 4278190080
0.81709975 0.016669428 0.27299976 4278190080
0.81910026 0.016669445 0.27301875 4278190080
0.69329995 0.018956259 0.27239993 4278190080
0.69509989 0.018956264 0.27239993 4278190080
0.6971001 0.018956266 0.27239993 4278190080
0.69910014 0.018956263 0.2724548 4278190080
0.70109975 0.018956261 0.27249977 4278190080
0.70309997 0.018956263 0.27248353 4278190080
0.71590024 0.019042855 0.27220002 4278190080
0.71670008 0.01907442 0.2732116 4278190080
0.78912455 0.018962778 0.27296427 4278190080
0.80369979 0.01898667 0.27290007 4278190080
0.80509984 0.018986665 0.27289981 4278190080
0.80709994 0.018986665 0.27289981 4278190080
0.80910021 0.018986672 0.27294257 4278190080
0.81109989 0.01898667 0.27299735 4278190080
0.8130998 0.018986665 0.27299872 4278190080
0.81510019 0.01898667 0.27300003 4278190080
0.81710023 0.018986665 0.27300003 4278190080
0.81909978 0.018986668 0.27304125 4278190080
0.69329989 0.021007696 0.27239993 4278190080
0.69510007 0.021007692 0.27239993 4278190080
0.69710016 0.021007683 0.27239993 4278190080
0.69910008 0.021007685 0.27245992 4278190080
0.70109993 0.021007692 0.27249995 4278190080
0.70307451 0.021006346 0.27247775 4278190080
0.71590018 0.020895459 0.27229545 4278190080
0.71670008 0.020898456 0.27331388 4278190080
0.78912812 0.021127909 0.27297908 4278190080
0.80366474 0.020799998 0.27284712 4278190080
0.80510008 0.020799996 0.27289996 4278190080
0.8071 0.020799996 0.27289996 4278190080
0.80909997 0.020799996 0.27293491 4278190080
0.81110001 0.020799996 0.27299237 4278190080
0.81310004 0.020799996 0.27299738 4278190080
0.81510001 0.020799996 0.27299985 4278190080
0.81709993 0.020799996 0.27299985 4278190080
0.81910002 0.020799996 0.27302238 4278190080
0.69330001 0.022966672 0.27239993 4278190080
0.69510001 0.022966662 0.27239993 4278190080
0.69710004 0.022966662 0.27239993 4278190080
0.69909984 0.022966668 0.27246445 4278190080
0.70110017 0.022966668 0.27250001 4278190080
0.70309985 0.022966668 0.27246889 4278190080
0.71590018 0.022813635 0.27228633 4278190080
0.71669996 0.022813631 0.27334395 4278190080
0.78906202 0.022855951 0.27302018 4278190080
0.80369985 0.022771431 0.27290007 4278190080
0.80509984 0.022771424 0.27289981 4278190080
0.8071 0.022771426 0.27289981 4278190080
0.80910015 0.022771427 0.27292842 4278190080
0.81110001 0.022771422 0.27299714 4278190080
0.8130998 0.022771422 0.27299997 4278190080
0.81509995 0.022771424 0.27299997 4278190080
0.81710023 0.02277142 0.27299997 4278190080
0.81909978 0.022771426 0.27303424 4278190080
0.69330001 0.024899988 0.27239993 4278190080
0.69509983 0.024899989 0.27240103 4278190080
0.69710004 0.024899986 0.27240324 4278190080
0.6991002 0.024899991 0.27245644 4278190080
0.70109975 0.024899989 0.27249971 4278190080
0.70309985 0.024899989 0.27249414 4278190080
0.70506197 0.025900003 0.2724143 4278190080
0.70710003 0.025900003 0.27241501 4278190080
0.70910001 0.025900003 0.27239001 4278190080
0.71103334 0.025900004 0.27245003 4278190080
0.71310002 0.025900004 0.27257332 4278190080
0.7155925 0.025117949 0.27236408 4278190080
0.71678001 0.024851762 0.27312824 4278190080
0.71912503 0.025881253 0.2725375 4278190080
0.72110003 0.025900004 0.27258 4278190080
0.72309995 0.025900004 0.27254665 4278190080
0.72509998 0.025900004 0.27247334 4278190080
0.72710001 0.025900004 0.27246001 4278190080
0.72910005 0.025900004 0.27240664 4278190080
0.73110002 0.025900004 0.27236664 4278190080
0.73722005 0.025699999 0.27236003 4278190080
0.73910004 0.025699999 0.27245 4278190080
0.74109995 0.025699999 0.27244002 4278190080
0.74310005 0.025699999 0.27245003 4278190080
0.74510002 0.025699999 0.27240002 4278190080
0.7471 0.025699999 0.27236 4278190080
0.74909997 0.025699999 0.27229998 4278190080
0.75110006 0.025699999 0.27224997 4278190080
0.75310004 0.025699999 0.27218002 4278190080
0.75505555 0.025700001 0.27214447 4278190080
0.75709999 0.025699999 0.27215999 4278190080
0.75909996 0.025699999 0.2721 4278190080
0.76109999 0.025699999 0.27204004 4278190080
0.76310003 0.025699999 0.27200001 4278190080
0.7651 0.025699999 0.27200001 4278190080
0.76670003 0.025699997 0.27200001 4278190080
0.78116661 0.025599999 0.27211666 4278190080
0.78341997 0.025599997 0.27210003 4278190080
0.78509998 0.025599997 0.2721 4278190080
0.78709996 0.025599997 0.27204004 4278190080
0.78918391 0.024952944 0.27287808 4278190080
0.79110003 0.025599997 0.27202001 4278190080
0.79229999 0.025599999 0.27200001 4278190080
0.80352855 0.025171431 0.27285236 4278190080
0.80509984 0.025133323 0.27289981 4278190080
0.80709994 0.025133329 0.27289981 4278190080
0.80910009 0.02513333 0.27291185 4278190080
0.81109995 0.02513333 0.27298802 4278190080
0.81309986 0.025133327 0.27299735 4278190080
0.81510019 0.025133332 0.27300003 4278190080
0.81710017 0.025133334 0.27300003 4278190080
0.81909984 0.025133334 0.27301866 4278190080
0.69335806 0.027174491 0.27239993 4278190080
0.69510102 0.027254172 0.27239993 4278190080
0.69702864 0.027280338 0.27239993 4278190080
0.69904441 0.027311197 0.27241921 4278190080
0.70102072 0.027317632 0.27246323 4278190080
0.70302808 0.027338734 0.27248722 4278190080
0.7050845 0.027342726 0.2724992 4278190080
0.70707977 0.027349604 0.27249822 4278190080
0.70907575 0.027353738 0.27249956 4278190080
0.71107107 0.027357986 0.27250209 4278190080
0.71307343 0.027361641 0.27252987 4278190080
0.71503502 0.027329145 0.27254543 4278190080
0.71701252 0.027329238 0.27255568 4278190080
0.71901417 0.02732216 0.27256006 4278190080
0.72101152 0.027329871 0.27256739 4278190080
0.72305971 0.027329246 0.27257952 4278190080
0.72506034 0.027329274 0.27259919 4278190080
0.72706008 0.027329301 0.27263159 4278190080
0.72901142 0.027325746 0.27265286 4278190080
0.73101068 0.0273332 0.27266231 4278190080
0.73299026 0.027355354 0.27266082 4278190080
0.73499703 0.027355464 0.27266765 4278190080
0.73710436 0.027314415 0.27264971 4278190080
0.73906618 0.027310263 0.27264056 4278190080
0.74106681 0.027310858 0.27263826 4278190080
0.74302095 0.027304731 0.27261853 4278190080
0.7450096 0.027316732 0.27261162 4278190080
0.74701178 0.027310828 0.27260521 4278190080
0.74900937 0.02731809 0.27259776 4278190080
0.75104213 0.027315486 0.27258542 4278190080
0.75304556 0.027316039 0.27257264 4278190080
0.75506115 0.027345298 0.27254257 4278190080
0.75702024 0.027347015 0.27254763 4278190080
0.75903004 0.027336465 0.27256274 4278190080
0.76101476 0.027326565 0.27259514 4278190080
0.76301461 0.027332237 0.27261779 4278190080
0.76505399 0.027332261 0.27263927 4278190080
0.7670548 0.02733296 0.27265632 4278190080
0.76905334 0.027332993 0.27268609 4278190080
0.77105451 0.027332973 0.27271268 4278190080
0.77305377 0.027334368 0.27272809 4278190080
0.77501315 0.027337449 0.27274534 4278190080
0.7769798 0.027375277 0.27275535 4278190080
0.77903342 0.027371339 0.27278042 4278190080
0.78125209 0.02738709 0.27270865 4278190080
0.78309399 0.027389033 0.27272105 4278190080
0.78508699 0.02738866 0.27271935 4278190080
0.7870962 0.027388524 0.2727187 4278190080
0.78909302 0.027383966 0.27274877 4278190080
0.79109526 0.027387869 0.27282265 4278190080
0.79309928 0.027387591 0.27282146 4278190080
0.79508048 0.027387615 0.2728211 4278190080
0.79710019 0.027388206 0.27281937 4278190080
0.79909307 0.027392097 0.27282414 4278190080
0.80110824 0.027392386 0.27290872 4278190080
0.80309111 0.027391439 0.27290922 4278190080
0.80508918 0.027391098 0.27291012 4278190080
0.80711192 0.027391089 0.27291012 4278190080
0.80909139 0.027391117 0.27294743 4278190080
0.81111246 0.027391132 0.2729885 4278190080
0.81308931 0.027391126 0.27298856 4278190080
0.81510031 0.027391095 0.27298865 4278190080
0.81709135 0.027391078 0.27298865 4278190080
0.8191036 0.027391126 0.27302325 4278190080
0.71935886 -0.084699996 0.27511764 4278190080
0.72066009 -0.085480005 0.27548999 4278190080
0.72249997 -0.086000003 0.27574998 4278190080
0.78563333 -0.084200002 0.27520001 4278190080
0.71766788 -0.082497209 0.27465841 4278190080
0.71837485 -0.082645699 0.27565965 4278190080
0.78750443 -0.08275044 0.27532744 4278190080
0.78829968 -0.082662694 0.27433282 4278190080
0.7999 -0.082500003 0.2748 4278190080
0.70850003 -0.081299998 0.27430001 4278190080
0.7105 -0.081299998 0.2755 4278190080
0.71274441 -0.08102221 0.27522781 4278190080
0.71765739 -0.081283532 0.27470756 4278190080
0.71832305 -0.081224315 0.27565256 4278190080
0.78758276 -0.081123367 0.2753754 4278190080
0.78835529 -0.081127785 0.27441388 4278190080
0.71769625 -0.079096317 0.27466902 4278190080
