# .PCD v0.7 - Point Cloud Data file format
VERSION 0.7
FIELDS x y z rgb
SIZE 4 4 4 4
TYPE F F F U
COUNT 1 1 1 1
WIDTH 657
HEIGHT 1
VIEWPOINT 0 0 0 1 0 0 0
POINTS 657
DATA ascii
0.76106143 -0.095886298 0.16399997 16777215
0.7597397 -0.096173979 0.16299993 16777215
0.76148087 -0.099779032 0.15599996 16777215
0.76297331 -0.10312777 0.14999998 16777215
0.76396823 -0.10591688 0.14599997 16777215
0.76496315 -0.10872687 0.14199996 16777215
0.75865883 -0.096749298 0.16099995 16777215
0.76013559 -0.10006931 0.15499997 16777215
0.7616123 -0.10342067 0.14899993 16777215
0.76259685 -0.10621237 0.14499998 16777215
0.76333517 -0.10872687 0.14199996 16777215
0.75732398 -0.097036965 0.15999997 16777215
0.75878507 -0.10035958 0.15399998 16777215
0.76048964 -0.10400645 0.14699996 16777215
0.76122022 -0.10650789 0.14399993 16777215
0.75598395 -0.097324617 0.15899998 16777215
0.75742936 -0.10064987 0.15299994 16777215
0.75887471 -0.10400645 0.14699996 16777215
0.75959742 -0.10650789 0.14399993 16777215
0.75487697 -0.097899951 0.15699995 16777215
0.75606835 -0.10094015 0.15199995 16777215
0.75749809 -0.10429933 0.14599997 16777215
0.75821292 -0.10680339 0.14299995 16777215
0.75328815 -0.097899951 0.15699995 16777215
0.75493789 -0.10152069 0.14999998 16777215
0.75635189 -0.10488512 0.14399993 16777215
0.75682324 -0.10709888 0.14199996 16777215
0.75193244 -0.098187618 0.15599996 16777215
0.75333077 -0.10152069 0.14999998 16777215
0.75472915 -0.10488512 0.14399993 16777215
0.75519526 -0.10709888 0.14199996 16777215
0.75057149 -0.098475285 0.15499997 16777215
0.7519542 -0.10181098 0.14899993 16777215
0.75333685 -0.10517801 0.14299995 16777215
0.75356728 -0.10709888 0.14199996 16777215
0.74874961 -0.098187618 0.15599996 16777215
0.75011665 -0.10152069 0.14999998 16777215
0.75148362 -0.10488512 0.14399993 16777215
0.7519393 -0.10709888 0.14199996 16777215
0.74715823 -0.098187618 0.15599996 16777215
0.74850953 -0.10152069 0.14999998 16777215
0.74963564 -0.10459221 0.14499998 16777215
0.75031132 -0.10709888 0.14199996 16777215
0.74534422 -0.097899951 0.15699995 16777215
0.74667984 -0.10123042 0.15099996 16777215
0.7477929 -0.10429933 0.14599997 16777215
0.74868333 -0.10709888 0.14199996 16777215
0.74353546 -0.097612299 0.15799993 16777215
0.7448554 -0.10094015 0.15199995 16777215
0.74595535 -0.10400645 0.14699996 16777215
0.74683535 -0.10680339 0.14299995 16777215
0.74194926 -0.097612299 0.15799993 16777215
0.74303615 -0.10064987 0.15299994 16777215
0.74434042 -0.10400645 0.14699996 16777215
0.74520993 -0.10680339 0.14299995 16777215
0.74014831 -0.097324617 0.15899998 16777215
0.74122214 -0.10035958 0.15399998 16777215
0.74251074 -0.10371355 0.14799994 16777215
0.74336982 -0.10650789 0.14399993 16777215
0.7383526 -0.097036965 0.15999997 16777215
0.73962551 -0.10035958 0.15399998 16777215
0.7406863 -0.10342067 0.14899993 16777215
0.74195921 -0.10680339 0.14299995 16777215
0.73677164 -0.097036965 0.15999997 16777215
0.73802888 -0.10035958 0.15399998 16777215
0.73907661 -0.10342067 0.14899993 16777215
0.74033386 -0.10680339 0.14299995 16777215
0.73519069 -0.097036965 0.15999997 16777215
0.73643225 -0.10035958 0.15399998 16777215
0.73746693 -0.10342067 0.14899993 16777215
0.7387085 -0.10680339 0.14299995 16777215
0.73360974 -0.097036965 0.15999997 16777215
0.73483562 -0.10035958 0.15399998 16777215
0.73585719 -0.10342067 0.14899993 16777215
0.73708308 -0.10680339 0.14299995 16777215
0.73202878 -0.097036965 0.15999997 16777215
0.733239 -0.10035958 0.15399998 16777215
0.73424751 -0.10342067 0.14899993 16777215
0.73565942 -0.10709888 0.14199996 16777215
0.73064691 -0.097324617 0.15899998 16777215
0.73164237 -0.10035958 0.15399998 16777215
0.7328369 -0.10371355 0.14799994 16777215
0.73403144 -0.10709888 0.14199996 16777215
0.72906339 -0.097324617 0.15899998 16777215
0.73004574 -0.10035958 0.15399998 16777215
0.7312246 -0.10371355 0.14799994 16777215
0.73240346 -0.10709888 0.14199996 16777215
0.72747982 -0.097324617 0.15899998 16777215
0.72844911 -0.10035958 0.15399998 16777215
0.7294184 -0.10342067 0.14899993 16777215
0.73058158 -0.10680339 0.14299995 16777215
0.73077548 -0.10872687 0.14199996 16777215
0.72570503 -0.097036965 0.15999997 16777215
0.72666121 -0.10006931 0.15499997 16777215
0.72780871 -0.10342067 0.14899993 16777215
0.72876495 -0.10650789 0.14399993 16777215
0.72914743 -0.10872687 0.14199996 16777215
0.72412407 -0.097036965 0.15999997 16777215
0.7250672 -0.10006931 0.15499997 16777215
0.72601038 -0.10312777 0.14999998 16777215
0.72695357 -0.10621237 0.14499998 16777215
0.72733086 -0.10842875 0.14299995 16777215
0.72751945 -0.11035486 0.14199996 16777215
0.72235709 -0.096749298 0.16099995 16777215
0.72328717 -0.099779032 0.15599996 16777215
0.7242173 -0.10283487 0.15099996 16777215
0.72514737 -0.10591688 0.14599997 16777215
0.72570544 -0.10842875 0.14299995 16777215
0.72589147 -0.11035486 0.14199996 16777215
0.72589147 -0.11198284 0.14199996 16777215
0.7207787 -0.096749298 0.16099995 16777215
0.72169578 -0.099779032 0.15599996 16777215
0.72242939 -0.10254199 0.15199995 16777215
0.72334647 -0.10562138 0.14699996 16777215
0.72389668 -0.10813064 0.14399993 16777215
0.72408009 -0.11005414 0.14299995 16777215
0.72426349 -0.11198284 0.14199996 16777215
0.72426349 -0.11361084 0.14199996 16777215
0.71901959 -0.096461631 0.16199994 16777215
0.71992356 -0.099488758 0.15699995 16777215
0.72082758 -0.10254199 0.15199995 16777215
0.72173154 -0.10562138 0.14699996 16777215
0.72227395 -0.10813064 0.14399993 16777215
0.72245473 -0.11005414 0.14299995 16777215
0.72263551 -0.11198284 0.14199996 16777215
0.72263551 -0.11361084 0.14199996 16777215
0.72263551 -0.11523882 0.14199996 16777215
0.71726573 -0.096173979 0.16299993 16777215
0.71833479 -0.099488758 0.15699995 16777215
0.71904755 -0.10224911 0.15299994 16777215
0.7199384 -0.10532587 0.14799994 16777215
0.72065115 -0.10813064 0.14399993 16777215
0.72082937 -0.11005414 0.14299995 16777215
0.72100753 -0.11198284 0.14199996 16777215
0.72100753 -0.11361084 0.14199996 16777215
0.72100753 -0.11523882 0.14199996 16777215
0.72100753 -0.11686682 0.14199996 16777215
0.71569258 -0.096173979 0.16299993 16777215
0.71657044 -0.099198483 0.15799993 16777215
0.71744829 -0.10224911 0.15299994 16777215
0.71832609 -0.10532587 0.14799994 16777215
0.71902841 -0.10813064 0.14399993 16777215
0.71902841 -0.10975341 0.14399993 16777215
0.71937954 -0.11198284 0.14199996 16777215
0.71937954 -0.11361084 0.14199996 16777215
0.71937954 -0.11523882 0.14199996 16777215
0.71937954 -0.11686682 0.14199996 16777215
0.71937954 -0.1184948 0.14199996 16777215
0.71411949 -0.096173979 0.16299993 16777215
0.71498424 -0.099198483 0.15799993 16777215
0.71584904 -0.10224911 0.15299994 16777215
0.71671379 -0.10532587 0.14799994 16777215
0.71740562 -0.10813064 0.14399993 16777215
0.71757859 -0.11005414 0.14299995 16777215
0.71775156 -0.11198284 0.14199996 16777215
0.71775156 -0.11361084 0.14199996 16777215
0.71775156 -0.11523882 0.14199996 16777215
0.71775156 -0.11686682 0.14199996 16777215
0.71775156 -0.1184948 0.14199996 16777215
0.71775156 -0.12012277 0.14199996 16777215
0.71775156 -0.12175076 0.14199996 16777215
0.71254635 -0.096173979 0.16299993 16777215
0.7133981 -0.099198483 0.15799993 16777215
0.71424979 -0.10224911 0.15299994 16777215
0.71510148 -0.10532587 0.14799994 16777215
0.71561253 -0.10783251 0.14499998 16777215
0.71595323 -0.11005414 0.14299995 16777215
0.71612358 -0.11198284 0.14199996 16777215
0.71612358 -0.11361084 0.14199996 16777215
0.71612358 -0.11523882 0.14199996 16777215
0.71612358 -0.1184948 0.14199996 16777215
0.71612358 -0.12012277 0.14199996 16777215
0.71612358 -0.12175076 0.14199996 16777215
0.71612358 -0.12337875 0.14199996 16777215
0.71612358 -0.12500674 0.14199996 16777215
0.71612358 -0.12826273 0.14199996 16777215
0.7118119 -0.099198483 0.15799993 16777215
0.71265054 -0.10224911 0.15299994 16777215
0.71348917 -0.10532587 0.14799994 16777215
0.71416014 -0.10813064 0.14399993 16777215
0.71432787 -0.11005414 0.14299995 16777215
0.7144956 -0.11198284 0.14199996 16777215
0.7144956 -0.11361084 0.14199996 16777215
0.7144956 -0.11523882 0.14199996 16777215
0.7144956 -0.11686682 0.14199996 16777215
0.7144956 -0.1184948 0.14199996 16777215
0.7144956 -0.12012277 0.14199996 16777215
0.7144956 -0.12175076 0.14199996 16777215
0.7144956 -0.12337875 0.14199996 16777215
0.7144956 -0.12500674 0.14199996 16777215
0.7144956 -0.12663472 0.14199996 16777215
0.7144956 -0.12826273 0.14199996 16777215
0.7144956 -0.12989071 0.14199996 16777215
0.7102257 -0.099198483 0.15799993 16777215
0.71105134 -0.10224911 0.15299994 16777215
0.71187687 -0.10532587 0.14799994 16777215
0.71253735 -0.10813064 0.14399993 16777215
0.71270245 -0.11005414 0.14299995 16777215
0.71286762 -0.11198284 0.14199996 16777215
0.71286762 -0.11361084 0.14199996 16777215
0.71286762 -0.11523882 0.14199996 16777215
0.71286762 -0.11686682 0.14199996 16777215
0.71286762 -0.1184948 0.14199996 16777215
0.71286762 -0.12012277 0.14199996 16777215
0.71286762 -0.12175076 0.14199996 16777215
0.71286762 -0.12337875 0.14199996 16777215
0.71286762 -0.12500674 0.14199996 16777215
0.71286762 -0.12663472 0.14199996 16777215
0.71286762 -0.12826273 0.14199996 16777215
0.71286762 -0.12989071 0.14199996 16777215
0.71286762 -0.13151869 0.14199996 16777215
0.71286762 -0.13314667 0.14199996 16777215
0.71286762 -0.13477468 0.14199996 16777215
0.70863956 -0.099198483 0.15799993 16777215
0.70945209 -0.10224911 0.15299994 16777215
0.71026456 -0.10532587 0.14799994 16777215
0.71091461 -0.10813064 0.14399993 16777215
0.71107709 -0.11005414 0.14299995 16777215
0.71123958 -0.11198284 0.14199996 16777215
0.71123958 -0.11361084 0.14199996 16777215
0.71123958 -0.11523882 0.14199996 16777215
0.71123958 -0.11686682 0.14199996 16777215
0.71123958 -0.1184948 0.14199996 16777215
0.71123958 -0.12012277 0.14199996 16777215
0.71123958 -0.12175076 0.14199996 16777215
0.71123958 -0.12337875 0.14199996 16777215
0.71123958 -0.12500674 0.14199996 16777215
0.71123958 -0.12663472 0.14199996 16777215
0.71123958 -0.12826273 0.14199996 16777215
0.71123958 -0.12989071 0.14199996 16777215
0.71123958 -0.13151869 0.14199996 16777215
0.71123958 -0.13314667 0.14199996 16777215
0.71123958 -0.13477468 0.14199996 16777215
0.71123958 -0.13640264 0.14199996 16777215
0.71123958 -0.13803065 0.14199996 16777215
0.71123958 -0.13965863 0.14199996 16777215
0.70705336 -0.099198483 0.15799993 16777215
0.70769292 -0.1019562 0.15399998 16777215
0.70865226 -0.10532587 0.14799994 16777215
0.70913196 -0.10783251 0.14499998 16777215
0.70929182 -0.10975341 0.14399993 16777215
0.70945174 -0.1116795 0.14299995 16777215
0.70961159 -0.11361084 0.14199996 16777215
0.70961159 -0.11523882 0.14199996 16777215
0.70961159 -0.11686682 0.14199996 16777215
0.70961159 -0.1184948 0.14199996 16777215
0.70961159 -0.12012277 0.14199996 16777215
0.70961159 -0.12175076 0.14199996 16777215
0.70945174 -0.12305712 0.14299995 16777215
0.70945174 -0.12468251 0.14299995 16777215
0.70945174 -0.12630787 0.14299995 16777215
0.70945174 -0.12793326 0.14299995 16777215
0.70945174 -0.12955862 0.14299995 16777215
0.70961159 -0.13151869 0.14199996 16777215
0.70945174 -0.13280937 0.14299995 16777215
0.70961159 -0.13477468 0.14199996 16777215
0.70961159 -0.13640264 0.14199996 16777215
0.70961159 -0.13803065 0.14199996 16777215
0.70961159 -0.13965863 0.14199996 16777215
0.70530993 -0.098908193 0.15899998 16777215
0.70609629 -0.1019562 0.15399998 16777215
0.70688272 -0.10503038 0.14899993 16777215
0.70735455 -0.1075344 0.14599997 16777215
0.70766908 -0.10975341 0.14399993 16777215
0.70782638 -0.1116795 0.14299995 16777215
0.70782638 -0.11330489 0.14299995 16777215
0.70798361 -0.11523882 0.14199996 16777215
0.70782638 -0.11655564 0.14299995 16777215
0.70782638 -0.118181 0.14299995 16777215
0.70782638 -0.11980637 0.14299995 16777215
0.70782638 -0.12143175 0.14299995 16777215
0.70782638 -0.12305712 0.14299995 16777215
0.70782638 -0.12468251 0.14299995 16777215
0.70782638 -0.12630787 0.14299995 16777215
0.70782638 -0.12793326 0.14299995 16777215
0.70782638 -0.12955862 0.14299995 16777215
0.70782638 -0.13118401 0.14299995 16777215
0.70782638 -0.13280937 0.14299995 16777215
0.70782638 -0.13443476 0.14299995 16777215
0.70798361 -0.13640264 0.14199996 16777215
0.70798361 -0.13803065 0.14199996 16777215
0.70798361 -0.13965863 0.14199996 16777215
0.70372635 -0.098908193 0.15899998 16777215
0.70449966 -0.1019562 0.15399998 16777215
0.70527297 -0.10503038 0.14899993 16777215
0.70573699 -0.1075344 0.14599997 16777215
0.70604634 -0.10975341 0.14399993 16777215
0.70604634 -0.11137616 0.14399993 16777215
0.70620096 -0.11330489 0.14299995 16777215
0.70620096 -0.11493025 0.14299995 16777215
0.70620096 -0.11655564 0.14299995 16777215
0.70620096 -0.118181 0.14299995 16777215
0.70620096 -0.11980637 0.14299995 16777215
0.70620096 -0.12143175 0.14299995 16777215
0.70620096 -0.12305712 0.14299995 16777215
0.70620096 -0.12468251 0.14299995 16777215
0.70604634 -0.125981 0.14399993 16777215
0.70604634 -0.12760377 0.14399993 16777215
0.70604634 -0.12922654 0.14399993 16777215
0.70620096 -0.13118401 0.14299995 16777215
0.70620096 -0.13280937 0.14299995 16777215
0.70620096 -0.13443476 0.14299995 16777215
0.70635563 -0.13640264 0.14199996 16777215
0.70635563 -0.13803065 0.14199996 16777215
0.70635563 -0.13965863 0.14199996 16777215
0.70199072 -0.098617919 0.15999997 16777215
0.70275098 -0.10166331 0.15499997 16777215
0.70366329 -0.10503038 0.14899993 16777215
0.70411944 -0.1075344 0.14599997 16777215
0.7042715 -0.10945267 0.14499998 16777215
0.70442355 -0.11137616 0.14399993 16777215
0.70442355 -0.11299894 0.14399993 16777215
0.70442355 -0.11462169 0.14399993 16777215
0.70442355 -0.11624446 0.14399993 16777215
0.70442355 -0.11786721 0.14399993 16777215
0.70442355 -0.11948996 0.14399993 16777215
0.70442355 -0.12111274 0.14399993 16777215
0.70442355 -0.12273549 0.14399993 16777215
0.70442355 -0.12435826 0.14399993 16777215
0.70442355 -0.125981 0.14399993 16777215
0.70442355 -0.12760377 0.14399993 16777215
0.70442355 -0.12922654 0.14399993 16777215
0.70442355 -0.1308493 0.14399993 16777215
0.7045756 -0.13280937 0.14299995 16777215
0.7045756 -0.13443476 0.14299995 16777215
0.7045756 -0.13606012 0.14299995 16777215
0.7045756 -0.13768551 0.14299995 16777215
0.70472765 -0.13965863 0.14199996 16777215
0.70040977 -0.098617919 0.15999997 16777215
0.70115697 -0.10166331 0.15499997 16777215
0.70190418 -0.10473486 0.14999998 16777215
0.70235246 -0.10723629 0.14699996 16777215
0.70250189 -0.10915194 0.14599997 16777215
0.70265138 -0.1110728 0.14499998 16777215
0.70280081 -0.11299894 0.14399993 16777215
0.70280081 -0.11462169 0.14399993 16777215
0.70280081 -0.11624446 0.14399993 16777215
0.70280081 -0.11786721 0.14399993 16777215
0.70280081 -0.11948996 0.14399993 16777215
0.70280081 -0.12111274 0.14399993 16777215
0.70280081 -0.12273549 0.14399993 16777215
0.70280081 -0.12435826 0.14399993 16777215
0.70280081 -0.125981 0.14399993 16777215
0.70280081 -0.12760377 0.14399993 16777215
0.70280081 -0.12922654 0.14399993 16777215
0.70280081 -0.1308493 0.14399993 16777215
0.70295024 -0.13280937 0.14299995 16777215
0.70295024 -0.13443476 0.14299995 16777215
0.70295024 -0.13606012 0.14299995 16777215
0.70295024 -0.13768551 0.14299995 16777215
0.70309967 -0.13965863 0.14199996 16777215
0.69882882 -0.098617919 0.15999997 16777215
0.69956297 -0.10166331 0.15499997 16777215
0.70029706 -0.10473486 0.14999998 16777215
0.70073754 -0.10723629 0.14699996 16777215
0.7008844 -0.10915194 0.14599997 16777215
0.70103121 -0.1110728 0.14499998 16777215
0.70117801 -0.11299894 0.14399993 16777215
0.70117801 -0.11462169 0.14399993 16777215
0.70117801 -0.11624446 0.14399993 16777215
0.70117801 -0.11786721 0.14399993 16777215
0.70117801 -0.11948996 0.14399993 16777215
0.70117801 -0.12111274 0.14399993 16777215
0.70117801 -0.12273549 0.14399993 16777215
0.70117801 -0.12435826 0.14399993 16777215
0.70117801 -0.125981 0.14399993 16777215
0.70117801 -0.12760377 0.14399993 16777215
0.70117801 -0.12922654 0.14399993 16777215
0.70117801 -0.1308493 0.14399993 16777215
0.70132488 -0.13280937 0.14299995 16777215
0.70132488 -0.13443476 0.14299995 16777215
0.70147169 -0.13640264 0.14199996 16777215
0.70132488 -0.13768551 0.14299995 16777215
0.70147169 -0.13965863 0.14199996 16777215
0.69724786 -0.098617919 0.15999997 16777215
0.69796896 -0.10166331 0.15499997 16777215
0.69869 -0.10473486 0.14999998 16777215
0.69912267 -0.10723629 0.14699996 16777215
0.69926685 -0.10915194 0.14599997 16777215
0.69941103 -0.1110728 0.14499998 16777215
0.69941103 -0.11269296 0.14499998 16777215
0.69955528 -0.11462169 0.14399993 16777215
0.69955528 -0.11624446 0.14399993 16777215
0.69955528 -0.11786721 0.14399993 16777215
0.69955528 -0.11948996 0.14399993 16777215
0.69955528 -0.12111274 0.14399993 16777215
0.69955528 -0.12273549 0.14399993 16777215
0.69955528 -0.12435826 0.14399993 16777215
0.69955528 -0.125981 0.14399993 16777215
0.69955528 -0.12760377 0.14399993 16777215
0.69955528 -0.12922654 0.14399993 16777215
0.69955528 -0.1308493 0.14399993 16777215
0.69969946 -0.13280937 0.14299995 16777215
0.69969946 -0.13443476 0.14299995 16777215
0.6998437 -0.13640264 0.14199996 16777215
0.6998437 -0.13803065 0.14199996 16777215
0.6998437 -0.13965863 0.14199996 16777215
0.69566691 -0.098617919 0.15999997 16777215
0.69637489 -0.10166331 0.15499997 16777215
0.69708294 -0.10473486 0.14999998 16777215
0.69750774 -0.10723629 0.14699996 16777215
0.6976493 -0.10915194 0.14599997 16777215
0.69779092 -0.1110728 0.14499998 16777215
0.69779092 -0.11269296 0.14499998 16777215
0.69793248 -0.11462169 0.14399993 16777215
0.69793248 -0.11624446 0.14399993 16777215
0.69793248 -0.11786721 0.14399993 16777215
0.69793248 -0.11948996 0.14399993 16777215
0.69793248 -0.12111274 0.14399993 16777215
0.69793248 -0.12273549 0.14399993 16777215
0.69793248 -0.12435826 0.14399993 16777215
0.69793248 -0.125981 0.14399993 16777215
0.69793248 -0.12760377 0.14399993 16777215
0.69793248 -0.12922654 0.14399993 16777215
0.6980741 -0.13118401 0.14299995 16777215
0.6980741 -0.13280937 0.14299995 16777215
0.6980741 -0.13443476 0.14299995 16777215
0.69821572 -0.13640264 0.14199996 16777215
0.69821572 -0.13803065 0.14199996 16777215
0.69821572 -0.13965863 0.14199996 16777215
0.69408596 -0.098617919 0.15999997 16777215
0.69478089 -0.10166331 0.15499997 16777215
0.69547582 -0.10473486 0.14999998 16777215
0.69589281 -0.10723629 0.14699996 16777215
0.69603175 -0.10915194 0.14599997 16777215
0.69617075 -0.1110728 0.14499998 16777215
0.69617075 -0.11269296 0.14499998 16777215
0.69630975 -0.11462169 0.14399993 16777215
0.69630975 -0.11624446 0.14399993 16777215
0.69630975 -0.11786721 0.14399993 16777215
0.69630975 -0.11948996 0.14399993 16777215
0.69630975 -0.12111274 0.14399993 16777215
0.69630975 -0.12273549 0.14399993 16777215
0.69630975 -0.12435826 0.14399993 16777215
0.69630975 -0.125981 0.14399993 16777215
0.69630975 -0.12760377 0.14399993 16777215
0.69644874 -0.12955862 0.14299995 16777215
0.69644874 -0.13118401 0.14299995 16777215
0.69658768 -0.13314667 0.14199996 16777215
0.69658768 -0.13477468 0.14199996 16777215
0.69658768 -0.13640264 0.14199996 16777215
0.69658768 -0.13803065 0.14199996 16777215
0.69658768 -0.13965863 0.14199996 16777215
0.692505 -0.098617919 0.15999997 16777215
0.69318688 -0.10166331 0.15499997 16777215
0.69386876 -0.10473486 0.14999998 16777215
0.69427788 -0.10723629 0.14699996 16777215
0.69441426 -0.10915194 0.14599997 16777215
0.69455063 -0.1110728 0.14499998 16777215
0.69468701 -0.11299894 0.14399993 16777215
0.69468701 -0.11462169 0.14399993 16777215
0.69468701 -0.11624446 0.14399993 16777215
0.69468701 -0.11786721 0.14399993 16777215
0.69468701 -0.11948996 0.14399993 16777215
0.69482338 -0.12143175 0.14299995 16777215
0.69482338 -0.12305712 0.14299995 16777215
0.69482338 -0.12468251 0.14299995 16777215
0.69482338 -0.12630787 0.14299995 16777215
0.69482338 -0.12793326 0.14299995 16777215
0.69482338 -0.12955862 0.14299995 16777215
0.69482338 -0.13118401 0.14299995 16777215
0.69495976 -0.13314667 0.14199996 16777215
0.69495976 -0.13477468 0.14199996 16777215
0.69495976 -0.13640264 0.14199996 16777215
0.69495976 -0.13803065 0.14199996 16777215
0.69495976 -0.13965863 0.14199996 16777215
0.69092405 -0.098617919 0.15999997 16777215
0.69159287 -0.10166331 0.15499997 16777215
0.6922617 -0.10473486 0.14999998 16777215
0.69266295 -0.10723629 0.14699996 16777215
0.69279671 -0.10915194 0.14599997 16777215
0.69293046 -0.1110728 0.14499998 16777215
0.69306421 -0.11299894 0.14399993 16777215
0.69306421 -0.11462169 0.14399993 16777215
0.69319797 -0.11655564 0.14299995 16777215
0.69319797 -0.118181 0.14299995 16777215
0.69319797 -0.11980637 0.14299995 16777215
0.69333172 -0.12175076 0.14199996 16777215
0.69333172 -0.12337875 0.14199996 16777215
0.69333172 -0.12500674 0.14199996 16777215
0.69333172 -0.12663472 0.14199996 16777215
0.69333172 -0.12826273 0.14199996 16777215
0.69333172 -0.12989071 0.14199996 16777215
0.69333172 -0.13151869 0.14199996 16777215
0.69333172 -0.13314667 0.14199996 16777215
0.69333172 -0.13477468 0.14199996 16777215
0.69333172 -0.13640264 0.14199996 16777215
0.69333172 -0.13803065 0.14199996 16777215
0.69333172 -0.13965863 0.14199996 16777215
0.68921196 -0.098327644 0.16099995 16777215
0.68999887 -0.10166331 0.15499997 16777215
0.69065458 -0.10473486 0.14999998 16777215
0.69104803 -0.10723629 0.14699996 16777215
0.69117916 -0.10915194 0.14599997 16777215
0.69131029 -0.1110728 0.14499998 16777215
0.69144148 -0.11299894 0.14399993 16777215
0.69157261 -0.11493025 0.14299995 16777215
0.69157261 -0.11655564 0.14299995 16777215
0.69170374 -0.1184948 0.14199996 16777215
0.69170374 -0.12012277 0.14199996 16777215
0.69170374 -0.12175076 0.14199996 16777215
0.69170374 -0.12337875 0.14199996 16777215
0.69170374 -0.12500674 0.14199996 16777215
0.69170374 -0.12663472 0.14199996 16777215
0.69170374 -0.12826273 0.14199996 16777215
0.69170374 -0.12989071 0.14199996 16777215
0.69170374 -0.13151869 0.14199996 16777215
0.69170374 -0.13314667 0.14199996 16777215
0.69170374 -0.13477468 0.14199996 16777215
0.69170374 -0.13640264 0.14199996 16777215
0.69170374 -0.13803065 0.14199996 16777215
0.69170374 -0.13965863 0.14199996 16777215
0.68763363 -0.098327644 0.16099995 16777215
0.68827629 -0.10137043 0.15599996 16777215
0.68891895 -0.10443936 0.15099996 16777215
0.6894331 -0.10723629 0.14699996 16777215
0.68956161 -0.10915194 0.14599997 16777215
0.68981868 -0.11137616 0.14399993 16777215
0.68981868 -0.11299894 0.14399993 16777215
0.68994725 -0.11493025 0.14299995 16777215
0.69007576 -0.11686682 0.14199996 16777215
0.69007576 -0.1184948 0.14199996 16777215
0.69007576 -0.12012277 0.14199996 16777215
0.69007576 -0.13477468 0.14199996 16777215
0.69007576 -0.13640264 0.14199996 16777215
0.69007576 -0.13803065 0.14199996 16777215
0.69007576 -0.13965863 0.14199996 16777215
0.6860553 -0.098327644 0.16099995 16777215
0.68668491 -0.10137043 0.15599996 16777215
0.68718857 -0.10414385 0.15199995 16777215
0.68781817 -0.10723629 0.14699996 16777215
0.68794411 -0.10915194 0.14599997 16777215
0.68819594 -0.11137616 0.14399993 16777215
0.68819594 -0.11299894 0.14399993 16777215
0.68844777 -0.11523882 0.14199996 16777215
0.68844777 -0.11686682 0.14199996 16777215
0.68844777 -0.13477468 0.14199996 16777215
0.68844777 -0.13640264 0.14199996 16777215
0.68844777 -0.13803065 0.14199996 16777215
0.68844777 -0.13965863 0.14199996 16777215
0.68447697 -0.098327644 0.16099995 16777215
0.6849702 -0.10107753 0.15699995 16777215
0.68558675 -0.10414385 0.15199995 16777215
0.68620324 -0.10723629 0.14699996 16777215
0.68632656 -0.10915194 0.14599997 16777215
0.68657321 -0.11137616 0.14399993 16777215
0.68669647 -0.11330489 0.14299995 16777215
0.68681979 -0.11523882 0.14199996 16777215
0.68681979 -0.13477468 0.14199996 16777215
0.68681979 -0.13640264 0.14199996 16777215
0.68669647 -0.13768551 0.14299995 16777215
0.68669647 -0.13931087 0.14299995 16777215
0.68657321 -0.14058587 0.14399993 16777215
0.68277794 -0.09803737 0.16199994 16777215
0.68338144 -0.10107753 0.15699995 16777215
0.68398488 -0.10414385 0.15199995 16777215
0.68458831 -0.10723629 0.14699996 16777215
0.68470901 -0.10915194 0.14599997 16777215
0.68495041 -0.11137616 0.14399993 16777215
0.68507111 -0.11330489 0.14299995 16777215
0.68519181 -0.11523882 0.14199996 16777215
0.68519181 -0.13477468 0.14199996 16777215
0.68519181 -0.13640264 0.14199996 16777215
0.68519181 -0.13803065 0.14199996 16777215
0.68507111 -0.13931087 0.14299995 16777215
0.68495041 -0.14058587 0.14399993 16777215
0.68108416 -0.097747095 0.16299993 16777215
0.68167454 -0.10078465 0.15799993 16777215
0.68226492 -0.10384836 0.15299994 16777215
0.68285537 -0.10693818 0.14799994 16777215
0.68309152 -0.10915194 0.14599997 16777215
0.68332767 -0.11137616 0.14399993 16777215
0.68356383 -0.11361084 0.14199996 16777215
0.68356383 -0.13477468 0.14199996 16777215
0.68356383 -0.13640264 0.14199996 16777215
0.68356383 -0.13803065 0.14199996 16777215
0.68344575 -0.13931087 0.14299995 16777215
0.68332767 -0.14058587 0.14399993 16777215
0.67939556 -0.097456805 0.16399997 16777215
0.67997289 -0.10049174 0.15899998 16777215
0.68055022 -0.10355284 0.15399998 16777215
0.68124306 -0.10693818 0.14799994 16777215
0.68147397 -0.10915194 0.14599997 16777215
0.68170488 -0.11137616 0.14399993 16777215
0.68193585 -0.11361084 0.14199996 16777215
0.68193585 -0.13640264 0.14199996 16777215
0.68193585 -0.13803065 0.14199996 16777215
0.68182039 -0.13931087 0.14299995 16777215
0.68170488 -0.14058587 0.14399993 16777215
0.6777122 -0.097166531 0.16499996 16777215
0.67827648 -0.10019886 0.15999997 16777215
0.67895359 -0.10355284 0.15399998 16777215
0.67951787 -0.10664006 0.14899993 16777215
0.67985642 -0.10915194 0.14599997 16777215
0.68019497 -0.1116795 0.14299995 16777215
0.68030787 -0.11361084 0.14199996 16777215
0.68030787 -0.13803065 0.14199996 16777215
0.68019497 -0.13931087 0.14299995 16777215
0.68008214 -0.14058587 0.14399993 16777215
0.6761443 -0.097166531 0.16499996 16777215
0.67669553 -0.10019886 0.15999997 16777215
0.67724675 -0.10325734 0.15499997 16777215
0.67790818 -0.10664006 0.14899993 16777215
0.67823887 -0.10915194 0.14599997 16777215
0.67856961 -0.1116795 0.14299995 16777215
0.67867982 -0.11361084 0.14199996 16777215
0.67867982 -0.13803065 0.14199996 16777215
0.67856961 -0.13931087 0.14299995 16777215
0.67845941 -0.14058587 0.14399993 16777215
0.67457646 -0.097166531 0.16499996 16777215
0.67511457 -0.10019886 0.15999997 16777215
0.67576033 -0.10355284 0.15399998 16777215
0.6762985 -0.10664006 0.14899993 16777215
0.67672896 -0.10945267 0.14499998 16777215
0.67694426 -0.1116795 0.14299995 16777215
0.67705184 -0.13803065 0.14199996 16777215
0.67705184 -0.13965863 0.14199996 16777215
0.67694426 -0.14093626 0.14299995 16777215
0.67311358 -0.097456805 0.16399997 16777215
0.67353362 -0.10019886 0.15999997 16777215
0.6741637 -0.10355284 0.15399998 16777215
0.67468882 -0.10664006 0.14899993 16777215
0.67510885 -0.10945267 0.14499998 16777215
0.67542386 -0.11198284 0.14199996 16777215
0.67542386 -0.13965863 0.14199996 16777215
0.67542386 -0.14128661 0.14199996 16777215
0.67154306 -0.097456805 0.16399997 16777215
0.67195266 -0.10019886 0.15999997 16777215
0.67256707 -0.10355284 0.15399998 16777215
0.67307907 -0.10664006 0.14899993 16777215
0.67348868 -0.10945267 0.14499998 16777215
0.67379588 -0.11198284 0.14199996 16777215
0.67379588 -0.14128661 0.14199996 16777215
0.66977298 -0.096876256 0.16599995 16777215
0.67037171 -0.10019886 0.15999997 16777215
0.67087066 -0.10325734 0.15499997 16777215
0.67136961 -0.10634194 0.14999998 16777215
0.67186856 -0.10945267 0.14499998 16777215
0.6721679 -0.11198284 0.14199996 16777215
0.66811055 -0.096585982 0.16699994 16777215
0.6686936 -0.099905975 0.16099995 16777215
0.66927665 -0.10325734 0.15499997 16777215
0.66976249 -0.10634194 0.14999998 16777215
0.67015123 -0.10915194 0.14599997 16777215
0.67053992 -0.11198284 0.14199996 16777215
0.6664533 -0.096295692 0.16799998 16777215
0.66692615 -0.099320196 0.16299993 16777215
0.66749352 -0.10266634 0.15699995 16777215
0.6680609 -0.10604382 0.15099996 16777215
0.66853368 -0.10915194 0.14599997 16777215
0.66891193 -0.11198284 0.14199996 16777215
0.66489327 -0.096295692 0.16799998 16777215
0.66535306 -0.099320196 0.16299993 16777215
0.6659047 -0.10266634 0.15699995 16777215
0.6664564 -0.10604382 0.15099996 16777215
0.66691613 -0.10915194 0.14599997 16777215
0.66728395 -0.11198284 0.14199996 16777215
