# .PCD v0.7 - Point Cloud Data file format
VERSION 0.7
FIELDS x y z rgb
SIZE 4 4 4 4
TYPE F F F U
COUNT 1 1 1 1
WIDTH 188
HEIGHT 1
VIEWPOINT 0 0 0 1 0 0 0
POINTS 188
DATA ascii
0.79307866 0.061110802 0.16199994 10132373
0.79125696 0.059708863 0.16799998 10132373
0.79034615 0.058243543 0.17099994 10198166
0.78943527 0.056793906 0.17399997 10066577
0.78879392 0.058243543 0.17099994 6974306
0.78789091 0.056793906 0.17399997 6973023
0.79291105 0.062449157 0.15199995 4933436
0.79082239 0.061031755 0.15899998 4407607
0.78903204 0.059621967 0.16499996 4407609
0.78754008 0.058211967 0.16999996 4539195
0.78664494 0.056759719 0.17299998 4735807
0.7933796 0.063903145 0.14499998 4539193
0.78805572 0.059564043 0.16299993 3683632
0.78657687 0.058148816 0.16799998 3815220
0.78539377 0.056725524 0.17199993 3946806
0.79205263 0.063882023 0.14399993 4407609
0.78677577 0.059535079 0.16199994 3486253
0.78530997 0.058117241 0.16699994 3486255
0.78413731 0.056691337 0.17099994 3617841
0.79101098 0.063839771 0.14199996 4145207
0.78955823 0.062330469 0.14699996 4145207
0.78578115 0.059477154 0.15999997 3026474
0.78403783 0.058085661 0.16599995 3158060
0.78258514 0.056691337 0.17099994 3354669
0.78477603 0.059419226 0.15799993 2763302
0.78304839 0.05802251 0.16399997 2960681
0.78132081 0.05665715 0.16999996 3288876
0.78718436 0.062259261 0.14399993 3816242
0.78176326 0.057990931 0.16299993 2894888
0.78005135 0.05662296 0.16899997 3223083
0.78584433 0.062235523 0.14299995 3750706
0.78047287 0.057959355 0.16199994 2763302
0.77877659 0.056588769 0.16799998 3026472
0.78449905 0.062211785 0.14199996 3619120
0.78281844 0.060741901 0.14799994 2829350
0.7774967 0.056554578 0.16699994 2960679
0.77593398 0.056554578 0.16699994 2894886
0.78014356 0.060689203 0.14599997 2631971
0.77464622 0.056520388 0.16599995 2763300
0.77879828 0.060662851 0.14499998 2697764
0.77308095 0.056520388 0.16599995 2894886
0.77717817 0.060662851 0.14499998 2829350
0.77151567 0.056520388 0.16599995 2763300
0.77582502 0.060636498 0.14399993 2829350
0.77208662 0.057833049 0.15799993 2631716
0.76995039 0.056520388 0.16599995 2763300
0.77420229 0.060636498 0.14399993 2829350
0.77284133 0.060610149 0.14299995 2698018
0.77147514 0.0605838 0.14199996 2698018
0.76984715 0.0605838 0.14199996 3092519
0.76821917 0.0605838 0.14199996 3158315
0.76633984 0.060610149 0.14299995 3290155
0.76446569 0.060636498 0.14399993 3290155
0.76235068 0.060689203 0.14599997 3290155
0.75488889 0.05665715 0.16999996 1315086
0.75333405 0.05665715 0.16999996 1249293
0.75845122 0.062211785 0.14199996 3224105
0.75154096 0.056691337 0.17099994 2434337
0.75682324 0.062211785 0.14199996 3224105
0.75163847 0.05802251 0.16399997 2960933
0.74975312 0.056725524 0.17199993 2894118
0.75472915 0.062259261 0.14399993 3158312
0.75146633 0.059419226 0.15799993 3158312
0.74960184 0.058085661 0.16599995 3092519
0.74820352 0.056725524 0.17199993 3552046
0.75310636 0.062259261 0.14399993 3092519
0.75172371 0.060794603 0.14999998 3158312
0.74826705 0.058054086 0.16499996 3158312
0.74665391 0.056725524 0.17199993 3618611
0.75148362 0.062259261 0.14399993 3092519
0.75011665 0.060794603 0.14999998 3158312
0.74510431 0.056725524 0.17199993 3618611
0.75031132 0.062211785 0.14199996 3092519
0.74850953 0.060794603 0.14999998 3158312
0.74355471 0.056725524 0.17199993 3684404
0.74712509 0.06076825 0.14899993 3158312
0.74222773 0.056691337 0.17099994 3618611
0.74595535 0.060715549 0.14699996 3158312
0.74067557 0.056691337 0.17099994 3552818
0.74086237 0.057990931 0.16299993 3026983
0.73934072 0.05665715 0.16999996 3421487
0.73778588 0.05665715 0.16999996 3618866
0.73644322 0.05662296 0.16899997 3552816
0.74012429 0.060636498 0.14399993 3092519
0.7387085 0.060610149 0.14299995 3092519
0.7372874 0.0605838 0.14199996 3092519
0.73565942 0.0605838 0.14199996 3092776
0.73403144 0.0605838 0.14199996 3092776
0.73220694 0.060610149 0.14299995 3158567
0.73038775 0.060636498 0.14399993 3355946
0.72876495 0.060636498 0.14399993 3355946
0.72714221 0.060636498 0.14399993 3290153
0.72533339 0.060662851 0.14499998 3355689
0.72371328 0.060662851 0.14499998 3355689
0.72242939 0.059245445 0.15199995 3224103
0.72114557 0.057864629 0.15899998 3026726
0.72209311 0.060662851 0.14499998 3224103
0.72082758 0.059245445 0.15199995 3224103
0.71974277 0.057833049 0.15799993 3092519
0.72047299 0.060662851 0.14499998 3158310
0.7192257 0.059245445 0.15199995 3158310
0.71815664 0.057833049 0.15799993 3092519
0.71867728 0.060689203 0.14599997 3158310
0.71744829 0.059274409 0.15299994 3092517
0.71639484 0.057864629 0.15899998 3092517
0.71705973 0.060689203 0.14599997 3092517
0.71584904 0.059274409 0.15299994 3092517
0.71527183 0.060715549 0.14699996 3092517
0.71407944 0.059303373 0.15399998 3026724
0.7130574 0.057896204 0.15999997 3026724
0.7136569 0.060715549 0.14699996 2960931
0.71204203 0.060715549 0.14699996 2960933
0.7089048 0.056520388 0.16599995 3289128
0.71123958 0.062211785 0.14199996 2895138
0.71010208 0.06076825 0.14899993 2960933
0.70733953 0.056520388 0.16599995 3289128
0.70929182 0.062259261 0.14399993 2895138
0.7084924 0.06076825 0.14899993 2960931
0.70577425 0.056520388 0.16599995 3486505
0.70751178 0.062282998 0.14499998 2763552
0.70656812 0.060820952 0.15099996 2895138
0.70578176 0.059361301 0.15599996 2895138
0.70405173 0.056554578 0.16699994 3224103
0.70620096 0.063860901 0.14299995 2895138
0.70558232 0.062330469 0.14699996 2763552
0.70465434 0.06087365 0.15299994 2895138
0.70388103 0.059419226 0.15799993 2895138
0.7045756 0.065486275 0.14299995 3025954
0.70411944 0.063924268 0.14599997 3025954
0.70366329 0.062377945 0.14899993 2763552
0.70275098 0.060926355 0.15499997 2895138
0.70199072 0.059477154 0.15999997 2895138
0.70138252 0.05802251 0.16399997 3026724
0.70062226 0.05662296 0.16899997 3158310
0.70309967 0.07035172 0.14199996 3223331
0.70295024 0.068737023 0.14299995 3091747
0.70280081 0.067127541 0.14399993 3091747
0.70250189 0.065541804 0.14599997 3025954
0.70220304 0.06396652 0.14799994 3025954
0.70160532 0.062449157 0.15199995 3025954
0.70085812 0.060979053 0.15699995 2895138
0.70026034 0.059506118 0.16099995 2895138
0.69966257 0.058054086 0.16499996 3026724
0.69891542 0.05665715 0.16999996 3158310
0.70147169 0.071979709 0.14199996 3486503
0.70117801 0.070373066 0.14399993 3223331
0.70103121 0.068763591 0.14499998 3157540
0.7008844 0.06715934 0.14599997 3091747
0.70044392 0.06559734 0.14899993 3025954
0.70015025 0.064029887 0.15099996 2894368
0.69970977 0.062496632 0.15399998 3025954
0.69897568 0.061031755 0.15899998 2895138
0.69838834 0.059564043 0.16299993 2895138
0.69780105 0.058117241 0.16699994 2960931
0.69721377 0.056691337 0.17099994 3158310
0.6998437 0.075235687 0.14199996 3749675
0.69955528 0.073618591 0.14399993 3683882
0.69941103 0.072003886 0.14499998 3618089
0.69926685 0.070394412 0.14599997 3223331
0.69912267 0.06879016 0.14699996 3157538
0.69883424 0.067207031 0.14899993 3091745
0.69811314 0.064093262 0.15399998 3025952
0.69768053 0.062567845 0.15699995 3025952
0.69710368 0.061084457 0.16099995 3157538
0.69652683 0.059621967 0.16499996 3157538
0.69609421 0.058148816 0.16799998 3157538
0.69551736 0.056725524 0.17199993 3354919
0.69821572 0.076863669 0.14199996 4144687
0.69793248 0.07524135 0.14399993 4078894
0.69793248 0.073618591 0.14399993 3749675
0.6976493 0.07201194 0.14599997 3683882
0.69736612 0.07041575 0.14799994 3618089
0.6972245 0.068816729 0.14899993 3552296
0.69708294 0.06722293 0.14999998 3552296
0.69651651 0.065689892 0.15399998 3354917
0.69637489 0.064114384 0.15499997 3683882
0.69580853 0.06261532 0.15899998 3683882
0.69524217 0.061137155 0.16299993 3683882
0.69467574 0.059679896 0.16699994 3617576
0.69425094 0.058211967 0.16999996 3617576
0.69368458 0.056793906 0.17399997 3749162
0.6881628 0.062852688 0.16899997 3683882
0.68763822 0.059853677 0.17299998 3618091
0.68737596 0.058369853 0.17499995 3749679
0.68724477 0.056862287 0.17599994 3815472
0.68467021 0.059824713 0.17199993 3356464
0.68441838 0.058338277 0.17399997 3487280
0.68441838 0.056793906 0.17399997 3553073
