# .PCD v0.7 - Point Cloud Data file format
VERSION 0.7
FIELDS x y z rgb
SIZE 4 4 4 4
TYPE F F F U
COUNT 1 1 1 1
WIDTH 240
HEIGHT 1
VIEWPOINT 0 0 0 1 0 0 0
POINTS 240
DATA ascii
0.6867339 -0.046374232 0.16799998 3421489
0.6867339 -0.047934279 0.16799998 3618611
0.68567753 -0.012649909 0.16399997 5988186
0.68567753 -0.014220409 0.16399997 5988186
0.6854257 -0.01548212 0.16599995 6053979
0.6854257 -0.01704739 0.16599995 5856600
0.68529981 -0.018453047 0.16699994 5856600
0.68517387 -0.019853458 0.16799998 5790807
0.68517387 -0.021413498 0.16799998 5790807
0.68504798 -0.022806086 0.16899997 5790807
0.68492204 -0.024193451 0.16999996 5725014
0.68492204 -0.025748268 0.16999996 5725014
0.68492204 -0.027303092 0.16999996 5725014
0.68492204 -0.028857909 0.16999996 5988184
0.68492204 -0.030412726 0.16999996 6053977
0.68492204 -0.031967551 0.16999996 5856598
0.68492204 -0.033522367 0.16999996 5725012
0.68492204 -0.035077192 0.16999996 5856598
0.68504798 -0.036822982 0.16899997 5988184
0.68504798 -0.038380414 0.16899997 5921623
0.68504798 -0.039937846 0.16899997 5921623
0.68504798 -0.041495278 0.16899997 6119002
0.68517387 -0.043254144 0.16799998 6119002
0.68517387 -0.044814192 0.16799998 5921623
0.68517387 -0.046374232 0.16799998 6184795
0.68529981 -0.048143558 0.16699994 5921623
0.68529981 -0.049706213 0.16699994 5790037
0.68529981 -0.051268883 0.16699994 5131850
0.6854257 -0.053048648 0.16599995 5790037
0.6854257 -0.054613911 0.16599995 5593428
0.68447697 0.0026859641 0.16099995 6383712
0.68460029 0.00098197907 0.15999997 6120542
0.68460029 -0.00059897453 0.15999997 6317149
0.68460029 -0.0021799207 0.15999997 6448735
0.68460029 -0.0037608743 0.15999997 6514528
0.68460029 -0.0053418279 0.15999997 6317149
0.68460029 -0.006922774 0.15999997 6317149
0.68447697 -0.0083623976 0.16099995 6447965
0.68447697 -0.009940736 0.16099995 6185563
0.68447697 -0.011519074 0.16099995 6317149
0.68423039 -0.012799084 0.16299993 6514528
0.68423039 -0.014372192 0.16299993 6317151
0.68410707 -0.015790902 0.16399997 6317151
0.68410707 -0.017361403 0.16399997 6448737
0.68398374 -0.018772282 0.16499996 6580323
0.68386042 -0.020177931 0.16599995 6514530
0.68373716 -0.021578357 0.16699994 6317151
0.68373716 -0.023141012 0.16699994 6185565
0.68373716 -0.024703674 0.16699994 6251358
0.68373716 -0.026266329 0.16699994 6119772
0.68373716 -0.027828991 0.16699994 6119002
0.68373716 -0.029391654 0.16699994 6185565
0.68373716 -0.030954309 0.16699994 6185565
0.68373716 -0.032516971 0.16699994 6448737
0.68373716 -0.034079626 0.16699994 6251358
0.68373716 -0.035642289 0.16699994 6317149
0.68373716 -0.037204944 0.16699994 6251356
0.68373716 -0.038767606 0.16699994 6251358
0.68373716 -0.040330261 0.16699994 6185565
0.68373716 -0.041892923 0.16699994 6119772
0.68373716 -0.043455586 0.16699994 6119772
0.68373716 -0.045018241 0.16699994 6250588
0.68386042 -0.046787553 0.16599995 6382174
0.68386042 -0.04835283 0.16599995 6250588
0.68386042 -0.049918093 0.16599995 5987416
0.68398374 -0.051697873 0.16499996 6184795
0.68410707 -0.053482853 0.16399997 6316381
0.68410707 -0.055053361 0.16399997 6382174
0.68410707 -0.056623839 0.16399997 6250588
0.68410707 -0.058194347 0.16399997 6448737
0.68410707 -0.05976484 0.16399997 7040102
0.68301934 0.00098197907 0.15999997 6646114
0.68301934 -0.00059897453 0.15999997 6514528
0.68314004 -0.0023107976 0.15899998 6580321
0.68314004 -0.0038943589 0.15899998 6514528
0.68314004 -0.0054779276 0.15899998 6448735
0.68314004 -0.0070614889 0.15899998 6448735
0.68314004 -0.0086450502 0.15899998 6645344
0.68301934 -0.010084681 0.15999997 6251356
0.68301934 -0.011665627 0.15999997 6514528
0.68289864 -0.013097413 0.16099995 6514528
0.68289864 -0.014675751 0.16099995 6448737
0.68277794 -0.016099699 0.16199994 6317151
0.68265724 -0.017518416 0.16299993 6514530
0.68253654 -0.018931903 0.16399997 6646116
0.68253654 -0.020502388 0.16399997 6580323
0.68241584 -0.021908045 0.16499996 6447967
0.68241584 -0.02347593 0.16499996 6316381
0.68241584 -0.025043815 0.16499996 6447967
0.6822952 -0.026439019 0.16599995 6250588
0.68241584 -0.028179586 0.16499996 6250588
0.6822952 -0.029569559 0.16599995 6447967
0.68241584 -0.031315356 0.16499996 6251358
0.68241584 -0.032883242 0.16499996 6448737
0.68241584 -0.034451127 0.16499996 6317151
0.68253654 -0.036207378 0.16399997 6448737
0.68253654 -0.037777871 0.16399997 6317149
0.6822952 -0.038961194 0.16599995 6579553
0.6822952 -0.040526465 0.16599995 6382174
0.6822952 -0.042091742 0.16599995 6382174
0.6822952 -0.043657012 0.16599995 6447967
0.68241584 -0.045426324 0.16499996 6645346
0.68253654 -0.047200866 0.16399997 6447967
0.68253654 -0.048771359 0.16399997 6447967
0.68253654 -0.050341867 0.16399997 6579553
0.68253654 -0.05191236 0.16399997 6711139
0.68265724 -0.053699978 0.16299993 6645346
0.68265724 -0.055273093 0.16299993 6776675
0.68265724 -0.056846194 0.16299993 6842468
0.68143839 -0.00059897453 0.15999997 7040104
0.68155646 -0.0023107976 0.15899998 7171688
0.68155646 -0.0038943589 0.15899998 6908516
0.68155646 -0.0054779276 0.15899998 6842723
0.68155646 -0.0070614889 0.15899998 6711907
0.68143839 -0.0085037276 0.15999997 6909288
0.68143839 -0.010084681 0.15999997 6711909
0.68143839 -0.011665627 0.15999997 6580323
0.68132031 -0.013097413 0.16099995 6580323
0.68132031 -0.014675751 0.16099995 6449507
0.68120223 -0.016099699 0.16199994 6449507
0.68108416 -0.017518416 0.16299993 6646886
0.68096608 -0.018931903 0.16399997 6778472
0.68096608 -0.020502388 0.16399997 6711909
0.68096608 -0.022072889 0.16399997 6776932
0.68096608 -0.023643389 0.16399997 6645346
0.68096608 -0.025213882 0.16399997 6580323
0.68096608 -0.026784383 0.16399997 6646116
0.68096608 -0.028354883 0.16399997 6514530
0.68096608 -0.029925384 0.16399997 6580323
0.68096608 -0.031495877 0.16399997 6448735
0.68096608 -0.033066377 0.16399997 6514528
0.68096608 -0.034636877 0.16399997 6514528
0.68096608 -0.036207378 0.16399997 6777702
0.68096608 -0.037777871 0.16399997 6909288
0.68096608 -0.039348371 0.16399997 7040104
0.680848 -0.040722668 0.16499996 7040104
0.680848 -0.042290553 0.16499996 6908518
0.680848 -0.043858439 0.16499996 6842725
0.68096608 -0.045630366 0.16399997 6842725
0.68096608 -0.047200866 0.16399997 7040104
0.68096608 -0.048771359 0.16399997 7040104
0.68096608 -0.050341867 0.16399997 7303276
0.68108416 -0.052126862 0.16299993 7632241
0.68108416 -0.053699978 0.16299993 7961204
0.67997289 -0.0054779276 0.15899998 7105895
0.67997289 -0.0070614889 0.15899998 7105897
0.67985743 -0.0085037276 0.15999997 6908518
0.67985743 -0.010084681 0.15999997 6842725
0.67985743 -0.011665627 0.15999997 6711139
0.67974198 -0.013097413 0.16099995 6514530
0.67974198 -0.014675751 0.16099995 6514530
0.67962646 -0.016099699 0.16199994 6514530
0.67951101 -0.017518416 0.16299993 6581093
0.67951101 -0.019091532 0.16299993 6581093
0.67939556 -0.020502388 0.16399997 6711909
0.67951101 -0.02223774 0.16299993 6776932
0.67939556 -0.023643389 0.16399997 6645346
0.67939556 -0.025213882 0.16399997 6514530
0.67951101 -0.02695708 0.16299993 6646116
0.67951101 -0.028530188 0.16299993 6646116
0.67951101 -0.030103303 0.16299993 6711907
0.67951101 -0.031676412 0.16299993 6448735
0.67951101 -0.033249527 0.16299993 6514528
0.67951101 -0.034822635 0.16299993 6580321
0.67939556 -0.036207378 0.16399997 6777702
0.67939556 -0.037777871 0.16399997 6909288
0.67939556 -0.039348371 0.16399997 7040104
0.67939556 -0.040918872 0.16399997 7040104
0.67939556 -0.042489372 0.16399997 6908518
0.67939556 -0.044059865 0.16399997 6842725
0.67939556 -0.045630366 0.16399997 6842725
0.67939556 -0.047200866 0.16399997 7040104
0.67939556 -0.048771359 0.16399997 7237483
0.67951101 -0.050553761 0.16299993 7632241
0.67951101 -0.052126862 0.16299993 7895156
0.67951101 -0.053699978 0.16299993 8224119
0.67827648 -0.0053418279 0.15999997 7369069
0.67827648 -0.006922774 0.15999997 7238253
0.67827648 -0.0085037276 0.15999997 7238253
0.67827648 -0.010084681 0.15999997 7171690
0.67827648 -0.011665627 0.15999997 6842725
0.67816365 -0.013097413 0.16099995 6776932
0.67816365 -0.014675751 0.16099995 6776932
0.67816365 -0.01625409 0.16099995 6776932
0.67805076 -0.017675422 0.16199994 7171690
0.67805076 -0.019251145 0.16199994 7171690
0.67793792 -0.020664632 0.16299993 6842725
0.67793792 -0.02223774 0.16299993 6776932
0.67793792 -0.023810856 0.16299993 6645346
0.67793792 -0.025383964 0.16299993 6646116
0.67793792 -0.02695708 0.16299993 6711909
0.67793792 -0.028530188 0.16299993 6777702
0.67793792 -0.030103303 0.16299993 6777702
0.67793792 -0.031676412 0.16299993 6646114
0.67793792 -0.033249527 0.16299993 6777700
0.67793792 -0.034822635 0.16299993 6909286
0.67793792 -0.036395751 0.16299993 7040102
0.67793792 -0.037968859 0.16299993 7105897
0.67782509 -0.039348371 0.16399997 7105897
0.67782509 -0.040918872 0.16399997 7237483
0.67782509 -0.042489372 0.16399997 7237483
0.67782509 -0.044059865 0.16399997 7566448
0.67782509 -0.045630366 0.16399997 7698034
0.67658532 -0.013097413 0.16099995 7369837
0.67658532 -0.014675751 0.16099995 7172460
0.67658532 -0.01625409 0.16099995 7106667
0.67658532 -0.017832428 0.16099995 7303276
0.67658532 -0.019410767 0.16099995 7303276
0.67647505 -0.020826861 0.16199994 6908518
0.67647505 -0.022402585 0.16199994 6908518
0.67647505 -0.023978315 0.16199994 6842725
0.67658532 -0.025724106 0.16099995 7040104
0.67658532 -0.027302444 0.16099995 7105897
0.67658532 -0.028880782 0.16099995 7171690
0.67647505 -0.030281208 0.16199994 7237483
0.67647505 -0.031856939 0.16199994 7303276
0.67647505 -0.033432662 0.16199994 7237483
0.67636478 -0.034822635 0.16299993 7105895
0.67636478 -0.036395751 0.16299993 7105895
0.67636478 -0.037968859 0.16299993 7237481
0.67636478 -0.039541975 0.16299993 7303274
0.67625457 -0.040918872 0.16399997 7566448
0.67625457 -0.042489372 0.16399997 7632241
0.67511457 -0.013246581 0.15999997 7435630
0.67500693 -0.014675751 0.16099995 7369839
0.67500693 -0.01625409 0.16099995 7500655
0.67500693 -0.017832428 0.16099995 7566448
0.67500693 -0.019410767 0.16099995 7369069
0.67500693 -0.020989098 0.16099995 7040104
0.67500693 -0.022567436 0.16099995 7040104
0.67500693 -0.024145767 0.16099995 6908518
0.67500693 -0.025724106 0.16099995 7040104
0.67500693 -0.027302444 0.16099995 7105897
0.67500693 -0.028880782 0.16099995 7237483
0.67500693 -0.030459121 0.16099995 7303276
0.67500693 -0.032037459 0.16099995 7369069
0.67489934 -0.033432662 0.16199994 7369069
0.67479169 -0.034822635 0.16299993 7632241
0.6734286 -0.025724106 0.16099995 6316124
0.67185026 -0.025724106 0.16099995 3091244
