# .PCD v0.7 - Point Cloud Data file format
VERSION 0.7
FIELDS x y z rgb
SIZE 4 4 4 4
TYPE F F F U
COUNT 1 1 1 1
WIDTH 197
HEIGHT 1
VIEWPOINT 0 0 0 1 0 0 0
POINTS 197
DATA ascii
0.77852607 0.052601527 0.14599997 4934475
0.77690852 0.052601527 0.14599997 4408133
0.77555799 0.05256211 0.14499998 4343110
0.77393782 0.05256211 0.14499998 4408903
0.77231771 0.05256211 0.14499998 4408133
0.77069753 0.05256211 0.14499998 4408133
0.76907742 0.05256211 0.14499998 4408133
0.76745725 0.05256211 0.14499998 4342340
0.76608849 0.052522697 0.14399993 4276547
0.76446569 0.052522697 0.14399993 4276547
0.76284295 0.052522697 0.14399993 4276545
0.76122022 0.052522697 0.14399993 4276545
0.75959742 0.052522697 0.14399993 3948350
0.75797468 0.052522697 0.14399993 4276545
0.75635189 0.052522697 0.14399993 4737349
0.75472915 0.052522697 0.14399993 4934728
0.75310636 0.052522697 0.14399993 5000521
0.75148362 0.052522697 0.14399993 5264463
0.75031132 0.054071851 0.14199996 4738371
0.74986088 0.052522697 0.14399993 5132624
0.74868333 0.054071851 0.14199996 4738117
0.74823809 0.052522697 0.14399993 5066831
0.74705529 0.054071851 0.14199996 4672324
0.74661535 0.052522697 0.14399993 5066831
0.74542737 0.054071851 0.14199996 4672324
0.74477518 0.05256211 0.14499998 5132624
0.74379933 0.054071851 0.14199996 4803394
0.74315506 0.05256211 0.14499998 5066831
0.74217135 0.054071851 0.14199996 4803659
0.74132276 0.052601527 0.14599997 5198417
0.74054337 0.054071851 0.14199996 4934475
0.7397052 0.052601527 0.14599997 5329233
0.7387085 0.054108653 0.14299995 4869452
0.73808765 0.052601527 0.14599997 4935245
0.73687875 0.054145455 0.14399993 4869452
0.73626584 0.052640945 0.14699996 5066831
0.73525602 0.054145455 0.14399993 4935245
0.73465091 0.052640945 0.14699996 5264210
0.73363328 0.054145455 0.14399993 4738636
0.73303598 0.052640945 0.14699996 5133394
0.73142105 0.052640945 0.14699996 5067601
0.73077548 0.05569984 0.14199996 4607301
0.7294184 0.052719772 0.14899993 5001808
0.72914743 0.05569984 0.14199996 4607301
0.72780871 0.052719772 0.14899993 4936015
0.72751945 0.05569984 0.14199996 4541508
0.72619903 0.052719772 0.14899993 4936017
0.72570544 0.055734027 0.14299995 4541508
0.72440332 0.052759193 0.14999998 4936017
0.72389668 0.055768214 0.14399993 4475715
0.72263551 0.057327826 0.14199996 4540738
0.72209311 0.055802409 0.14499998 4606531
0.72100753 0.057327826 0.14199996 4540738
0.72047299 0.055802409 0.14499998 4606531
0.7199384 0.054292664 0.14799994 4672843
0.71937954 0.057327826 0.14199996 4540738
0.71885282 0.055802409 0.14499998 4672324
0.71832609 0.054292664 0.14799994 4804429
0.71775156 0.057327826 0.14199996 4540738
0.7172327 0.055802409 0.14499998 4672324
0.71671379 0.054292664 0.14799994 4804429
0.71612358 0.057327826 0.14199996 4540738
0.71561253 0.055802409 0.14499998 4672324
0.71510148 0.054292664 0.14799994 4804429
0.7144956 0.057327826 0.14199996 4540738
0.71399236 0.055802409 0.14499998 4738117
0.71348917 0.054292664 0.14799994 4804429
0.71237224 0.055802409 0.14499998 4672324
0.71204203 0.054255866 0.14699996 4869452
0.71091461 0.055768214 0.14399993 4475715
0.71042711 0.054255866 0.14699996 4738636
0.70929182 0.055768214 0.14399993 4475715
0.70766908 0.055768214 0.14399993 4475715
0.70604634 0.055768214 0.14399993 4475715
0.70442355 0.055768214 0.14399993 4540738
0.70396739 0.054255866 0.14699996 4672843
0.70280081 0.055768214 0.14399993 4737090
0.70220304 0.054292664 0.14799994 4672073
0.70147169 0.057327826 0.14199996 4539965
0.7008844 0.055836596 0.14599997 4737344
0.70044392 0.05432947 0.14899993 4672073
0.6998437 0.057327826 0.14199996 4605756
0.69926685 0.055836596 0.14599997 4671808
0.69883424 0.05432947 0.14899993 4672073
0.6980741 0.057359401 0.14299995 4605756
0.6976493 0.055836596 0.14599997 4671806
0.6972245 0.05432947 0.14899993 4672073
0.69658768 0.057327826 0.14199996 4605758
0.69603175 0.055836596 0.14599997 4737601
0.69561481 0.05432947 0.14899993 4737868
0.69482338 0.057359401 0.14299995 4540222
0.69441426 0.055836596 0.14599997 4803140
0.69400513 0.05432947 0.14899993 4737868
0.69333172 0.058955811 0.14199996 4671808
0.69306421 0.05739098 0.14399993 4540222
0.69266295 0.055870786 0.14699996 4737347
0.69157261 0.058984775 0.14299995 4671808
0.69117916 0.057454132 0.14599997 4671808
0.6909169 0.055904977 0.14799994 4672324
0.69007576 0.0605838 0.14199996 4737601
0.68969017 0.059042703 0.14499998 4671808
0.6894331 0.057485707 0.14699996 4671808
0.68904752 0.055973358 0.14999998 4672324
0.68844777 0.062211785 0.14199996 4671808
0.68819594 0.060636498 0.14399993 4671808
0.68794411 0.059071667 0.14599997 4671808
0.68756634 0.057548858 0.14899993 4671808
0.68731451 0.056007545 0.15099996 4540738
0.68706268 0.054476678 0.15299994 4803659
0.68681979 0.073607698 0.14199996 4474170
0.68681979 0.071979709 0.14199996 4539193
0.68681979 0.063839771 0.14199996 4342584
0.68669647 0.062235523 0.14299995 4474427
0.68644989 0.060662851 0.14499998 4408634
0.68620324 0.059100628 0.14699996 4408634
0.68595666 0.057548858 0.14899993 4408636
0.68558675 0.056041732 0.15199995 4408636
0.68534011 0.054513484 0.15399998 4606282
0.68519181 0.073607698 0.14199996 4539191
0.68507111 0.07198777 0.14299995 4539191
0.68519181 0.07035172 0.14199996 4473398
0.68519181 0.068723738 0.14199996 4276019
0.68519181 0.067095749 0.14199996 4144433
0.68519181 0.06546776 0.14199996 4276021
0.68495041 0.063882023 0.14399993 4145205
0.68470901 0.062306736 0.14599997 4145203
0.68458831 0.060715549 0.14699996 3684652
0.68434697 0.059158556 0.14899993 3421480
0.68422627 0.057580438 0.14999998 3486507
0.68386418 0.056075923 0.15299994 3683886
0.68356383 0.073607698 0.14199996 4604471
0.68344575 0.07198777 0.14299995 4538678
0.68356383 0.07035172 0.14199996 4407605
0.68356383 0.068723738 0.14199996 4210226
0.68356383 0.067095749 0.14199996 4078640
0.68344575 0.065486275 0.14299995 4144433
0.68332767 0.063882023 0.14399993 4078640
0.68309152 0.062306736 0.14599997 4078640
0.68273723 0.06076825 0.14899993 3618089
0.68261915 0.05918752 0.14999998 3223331
0.682383 0.057643592 0.15199995 3157540
0.68202877 0.056144305 0.15499997 3289128
0.68193585 0.073607698 0.14199996 4538932
0.68182039 0.07198777 0.14299995 4538932
0.68193585 0.07035172 0.14199996 4472885
0.68193585 0.068723738 0.14199996 4210226
0.68193585 0.067095749 0.14199996 4078640
0.68170488 0.065504782 0.14399993 4078640
0.68147397 0.063924268 0.14599997 4078640
0.68124306 0.062354207 0.14799994 4012847
0.68078119 0.059245445 0.15199995 3025954
0.68055022 0.057706743 0.15399998 3091747
0.68031931 0.056178495 0.15599996 3223335
0.68030787 0.073607698 0.14199996 4144433
0.68019497 0.07198777 0.14299995 4012849
0.68030787 0.07035172 0.14199996 4144435
0.68030787 0.068723738 0.14199996 3947056
0.68030787 0.067095749 0.14199996 3815470
0.68008214 0.065504782 0.14399993 3618091
0.67974359 0.063945398 0.14699996 3486505
0.67951787 0.062377945 0.14899993 3552298
0.67917931 0.060847301 0.15199995 3091747
0.67906648 0.059274409 0.15299994 2762784
0.67884076 0.057738319 0.15499997 2762784
0.67861503 0.056212682 0.15699995 2894370
0.67867982 0.073607698 0.14199996 3223335
0.67856961 0.07198777 0.14299995 3025956
0.67867982 0.07035172 0.14199996 2894116
0.67867982 0.068723738 0.14199996 2894370
0.67856961 0.067111649 0.14299995 3025956
0.67845941 0.065504782 0.14399993 2894370
0.67801839 0.06396652 0.14799994 2894370
0.67779791 0.062401682 0.14999998 2894370
0.67735696 0.059303373 0.15399998 2565405
0.67724675 0.057738319 0.15499997 2565405
0.67702627 0.056212682 0.15699995 2631198
0.67705184 0.073607698 0.14199996 3224103
0.67705184 0.071979709 0.14199996 3092517
0.67705184 0.067095749 0.14199996 2960931
0.67683661 0.065504782 0.14399993 2895140
0.67640609 0.06396652 0.14799994 2895140
0.67619085 0.062401682 0.14999998 2894370
0.67576033 0.059303373 0.15399998 2433565
0.67565274 0.057738319 0.15499997 2433565
0.6753298 0.056246869 0.15799993 2565151
0.6748988 0.062330469 0.14699996 2236956
0.6741637 0.059303373 0.15399998 2039577
0.67405868 0.057738319 0.15499997 1973784
0.67374367 0.056246869 0.15799993 2105372
0.67338628 0.062306736 0.14599997 2039834
0.67277187 0.060847301 0.15199995 2039834
0.67256707 0.059303373 0.15399998 1908248
0.67246467 0.057738319 0.15499997 1710869
0.67225987 0.056212682 0.15699995 1973786
0.67077088 0.057769895 0.15599996 1513492
0.67057133 0.056246869 0.15799993 1447446
0.66898513 0.056246869 0.15799993 1447446
