# .PCD v0.7 - Point Cloud Data file format
VERSION 0.7
FIELDS x y z rgb
SIZE 4 4 4 4
TYPE F F F U
COUNT 1 1 1 1
WIDTH 262
HEIGHT 1
VIEWPOINT 0 0 0 1 0 0 0
POINTS 262
DATA ascii
0.83099449 0.06407214 0.15299994 9539979
0.83047074 0.064008765 0.14999998 4472889
0.81983805 0.058243543 0.17099994 2894888
0.81877828 0.056793906 0.17399997 3092014
0.82459754 0.062472895 0.15299994 4078642
0.81863648 0.058211967 0.16999996 2763302
0.81793523 0.056725524 0.17199993 2960428
0.82647866 0.063860901 0.14299995 3947826
0.82439041 0.062377945 0.14899993 3947826
0.81777775 0.058148816 0.16799998 2697507
0.81638563 0.056725524 0.17199993 3223083
0.82519871 0.063839771 0.14199996 3947826
0.8231262 0.062354207 0.14799994 3882033
0.81690854 0.058085661 0.16599995 2631716
0.81518143 0.056691337 0.17099994 3157290
0.82357073 0.063839771 0.14199996 3882033
0.82151389 0.062354207 0.14799994 3816240
0.81945699 0.060900003 0.15399998 3157540
0.81774294 0.05944819 0.15899998 2631714
0.81534326 0.058085661 0.16599995 2631716
0.813972 0.05665715 0.16999996 3223083
0.82160252 0.063860901 0.14299995 3816238
0.81990159 0.062354207 0.14799994 3816238
0.81820059 0.06087365 0.15299994 3157540
0.81615937 0.05944819 0.15899998 2631714
0.81445837 0.05802251 0.16399997 2565923
0.81241721 0.05665715 0.16999996 3157290
0.82031476 0.063839771 0.14199996 3816238
0.81862682 0.062330469 0.14699996 3684652
0.81693888 0.060847301 0.15199995 3157540
0.81491339 0.059419226 0.15799993 2631714
0.81288791 0.05802251 0.16399997 2565923
0.81119996 0.05662296 0.16899997 3026474
0.81868672 0.063839771 0.14199996 3618859
0.81701189 0.062330469 0.14699996 3684652
0.81533706 0.060847301 0.15199995 3222820
0.81366217 0.059390262 0.15699995 2565921
0.81165242 0.057990931 0.16299993 2565923
0.80997753 0.056588769 0.16799998 2565927
0.81705874 0.063839771 0.14199996 3618861
0.81572932 0.062306736 0.14599997 3684654
0.81406754 0.060820952 0.15099996 3223335
0.81207341 0.059390262 0.15699995 2696737
0.81007928 0.057990931 0.16299993 2631716
0.80841744 0.056588769 0.16799998 2960428
0.81411183 0.062306736 0.14599997 3618861
0.81279284 0.060794603 0.14999998 3157542
0.81081438 0.059361301 0.15599996 2565921
0.80883592 0.057959355 0.16199994 2565923
0.80685741 0.056588769 0.16799998 2960428
0.81282139 0.062282998 0.14499998 3553068
0.80726016 0.057959355 0.16199994 2565921
0.80529737 0.056588769 0.16799998 2894635
0.81152576 0.062259261 0.14399993 3487532
0.8079561 0.059332337 0.15499997 2566175
0.80600893 0.05792778 0.16099995 2565921
0.80406189 0.056554578 0.16699994 2763049
0.80990303 0.062259261 0.14399993 3421737
0.80829352 0.06076825 0.14899993 2960929
0.80636203 0.059332337 0.15499997 2500382
0.80249923 0.056554578 0.16699994 2631716
0.80828023 0.062259261 0.14399993 3355946
0.80668378 0.06076825 0.14899993 2895395
0.80476803 0.059332337 0.15499997 2434589
0.80093658 0.056554578 0.16699994 2565923
0.80697417 0.062235523 0.14299995 3355946
0.8050741 0.06076825 0.14899993 2961188
0.80317402 0.059332337 0.15499997 2566432
0.80127394 0.05792778 0.16099995 2632225
0.79937387 0.056554578 0.16699994 2566178
0.80503476 0.062259261 0.14399993 3290153
0.80346441 0.06076825 0.14899993 3026981
0.80158001 0.059332337 0.15499997 2961188
0.79969561 0.05792778 0.16099995 2961190
0.79781121 0.056554578 0.16699994 2434592
0.80341196 0.062259261 0.14399993 3290153
0.80185473 0.06076825 0.14899993 3092774
0.79811728 0.05792778 0.16099995 2961190
0.79656005 0.056520388 0.16599995 2105372
0.80178922 0.062259261 0.14399993 3290153
0.79993618 0.060794603 0.14999998 3158567
0.79653895 0.05792778 0.16099995 2830374
0.7946859 0.056554578 0.16699994 1513239
0.80016649 0.062259261 0.14399993 3355689
0.79832911 0.060794603 0.14999998 3224103
0.79496062 0.05792778 0.16099995 2830372
0.79312325 0.056554578 0.16699994 1315862
0.79854369 0.062259261 0.14399993 3224101
0.79672199 0.060794603 0.14999998 3158308
0.79520392 0.059332337 0.15499997 3026724
0.79338229 0.05792778 0.16099995 2895395
0.79186422 0.056520388 0.16599995 1315605
0.79692096 0.062259261 0.14399993 3224103
0.79541594 0.06076825 0.14899993 3158310
0.79360992 0.059332337 0.15499997 3026724
0.79210496 0.057896204 0.15999997 2960931
0.79029894 0.056520388 0.16599995 1380626
0.79499978 0.062282998 0.14499998 3224103
0.79350781 0.060794603 0.14999998 3092517
0.79201591 0.059332337 0.15499997 3026724
0.79052401 0.057896204 0.15999997 3026724
0.78873366 0.056520388 0.16599995 1381649
0.79367542 0.062259261 0.14399993 3092774
0.79219651 0.06076825 0.14899993 3026981
0.7904219 0.059332337 0.15499997 3026724
0.78894305 0.057896204 0.15999997 2960931
0.78716838 0.056520388 0.16599995 2763300
0.79175949 0.062282998 0.14499998 3092774
0.79029369 0.060794603 0.14999998 2961188
0.7888279 0.059332337 0.15499997 3026724
0.7873621 0.057896204 0.15999997 2960931
0.78560311 0.056520388 0.16599995 3026726
0.79042989 0.062259261 0.14399993 3092517
0.78868657 0.060794603 0.14999998 3092517
0.78723383 0.059332337 0.15499997 3092517
0.78578115 0.057896204 0.15999997 3026724
0.7843284 0.056486201 0.16499996 3158312
0.78880715 0.062259261 0.14399993 3158310
0.78736746 0.06076825 0.14899993 3092517
0.78563982 0.059332337 0.15499997 3026724
0.78420019 0.057896204 0.15999997 2895138
0.78304839 0.056452014 0.16399997 3289128
0.78718436 0.062259261 0.14399993 3158310
0.78575778 0.06076825 0.14899993 3026724
0.78147793 0.056452014 0.16399997 3289128
0.78556156 0.062259261 0.14399993 3158308
0.78414804 0.06076825 0.14899993 3092515
0.78273451 0.059303373 0.15399998 2960929
0.78132099 0.057864629 0.15899998 2895138
0.77990746 0.056452014 0.16399997 3223335
0.78393883 0.062259261 0.14399993 3158308
0.78253835 0.06076825 0.14899993 3092515
0.78113788 0.059303373 0.15399998 3091745
0.77833694 0.056452014 0.16399997 3092519
0.78231609 0.062259261 0.14399993 3158308
0.78092867 0.06076825 0.14899993 3026722
0.77954125 0.059303373 0.15399998 2960931
0.77815384 0.057864629 0.15899998 2895138
0.77676642 0.056452014 0.16399997 3289128
0.78069329 0.062259261 0.14399993 3092517
0.77931899 0.06076825 0.14899993 3026724
0.77794462 0.059303373 0.15399998 2960931
0.77657032 0.057864629 0.15899998 2960931
0.77519596 0.056452014 0.16399997 3092519
0.77934277 0.062235523 0.14299995 3092517
0.77770925 0.06076825 0.14899993 2960931
0.77634799 0.059303373 0.15399998 2895138
0.77525896 0.057833049 0.15799993 2960931
0.77389771 0.056417819 0.16299993 3092519
0.77771747 0.062235523 0.14299995 3026724
0.77663887 0.060715549 0.14699996 2960931
0.77502102 0.059274409 0.15299994 2895138
0.77367282 0.057833049 0.15799993 2895138
0.77232462 0.056417819 0.16299993 3092519
0.77635908 0.062211785 0.14199996 3026724
0.77502394 0.060715549 0.14699996 2895138
0.77368879 0.059245445 0.15199995 2895138
0.77235365 0.057801474 0.15699995 2895138
0.77075148 0.056417819 0.16299993 3026726
0.77340901 0.060715549 0.14699996 2960931
0.77076489 0.057801474 0.15699995 2895138
0.76917839 0.056417819 0.16299993 3026726
0.77205592 0.060689203 0.14599997 2960931
0.76917607 0.057801474 0.15699995 2895138
0.7676053 0.056417819 0.16299993 2960933
0.77043837 0.060689203 0.14599997 3026724
0.7675873 0.057801474 0.15699995 2960933
0.76603216 0.056417819 0.16299993 1577743
0.76907742 0.060662851 0.14499998 3290153
0.76445907 0.056417819 0.16299993 920326
0.76745725 0.060662851 0.14499998 3355689
0.76288593 0.056417819 0.16299993 789512
0.76583713 0.060662851 0.14499998 3355689
0.76131284 0.056417819 0.16299993 723719
0.76421696 0.060662851 0.14499998 3355689
0.7597397 0.056417819 0.16299993 920328
0.76259685 0.060662851 0.14499998 3224103
0.75816661 0.056417819 0.16299993 2171417
0.76122022 0.060636498 0.14399993 3158310
0.75975913 0.05918752 0.14999998 3092517
0.75683701 0.056383632 0.16199994 2696991
0.7593565 0.060662851 0.14499998 3092517
0.75670666 0.057769895 0.15599996 2960931
0.7552613 0.056383632 0.16199994 2895138
0.75773638 0.060662851 0.14499998 3092517
0.75654495 0.05918752 0.14999998 2960931
0.75535351 0.057738319 0.15499997 2960931
0.75392383 0.056349441 0.16099995 2895138
0.75611621 0.060662851 0.14499998 3026722
0.75493789 0.05918752 0.14999998 2895136
0.7537595 0.057738319 0.15499997 2895138
0.7523455 0.056349441 0.16099995 2895138
0.75426304 0.060689203 0.14599997 2895138
0.75333077 0.05918752 0.14999998 2697759
0.7521655 0.057738319 0.15499997 2763552
0.75100017 0.056315251 0.15999997 2895138
0.75264549 0.060689203 0.14599997 2763552
0.75172371 0.05918752 0.14999998 2631966
0.75057149 0.057738319 0.15499997 2763552
0.74941927 0.056315251 0.15999997 2895138
0.75102794 0.060689203 0.14599997 2697757
0.75011665 0.05918752 0.14999998 2631964
0.74897748 0.057738319 0.15499997 2631966
0.74783832 0.056315251 0.15999997 2697759
0.75031132 0.062211785 0.14199996 2762780
0.74941039 0.060689203 0.14599997 2631964
0.74850953 0.05918752 0.14999998 2566173
0.74738348 0.057738319 0.15499997 2631966
0.74625736 0.056315251 0.15999997 2631966
0.74846071 0.062235523 0.14299995 2762780
0.74757028 0.060715549 0.14699996 2762780
0.74690247 0.05918752 0.14999998 2566173
0.74578941 0.057738319 0.15499997 2631966
0.74467641 0.056315251 0.15999997 2631966
0.74661535 0.062259261 0.14399993 2762780
0.74595535 0.060715549 0.14699996 2762780
0.74529541 0.05918752 0.14999998 2762780
0.7441954 0.057738319 0.15499997 2696989
0.74309546 0.056315251 0.15999997 2762782
0.74499261 0.062259261 0.14399993 2828573
0.74434042 0.060715549 0.14699996 2828573
0.74368829 0.05918752 0.14999998 2762780
0.74260139 0.057738319 0.15499997 2762780
0.7415145 0.056315251 0.15999997 2828575
0.74379933 0.063839771 0.14199996 2894366
0.74336982 0.062259261 0.14399993 3025952
0.74272549 0.060715549 0.14699996 2828573
0.74165165 0.059245445 0.15199995 2828575
0.74079263 0.057769895 0.15599996 2894368
0.73993355 0.056315251 0.15999997 2894370
0.74217135 0.063839771 0.14199996 3025952
0.74153489 0.062282998 0.14499998 3025952
0.74089843 0.060741901 0.14799994 3025952
0.74004984 0.059245445 0.15199995 2828573
0.73920119 0.057769895 0.15599996 2894370
0.7383526 0.056315251 0.15999997 2895140
0.74054337 0.063839771 0.14199996 3025952
0.73991477 0.062282998 0.14499998 3025952
0.73928612 0.060741901 0.14799994 3025952
0.73844796 0.059245445 0.15199995 2894366
0.73740029 0.057801474 0.15699995 3025954
0.73656213 0.056349441 0.16099995 2960933
0.73850155 0.062259261 0.14399993 3025952
0.73767382 0.060741901 0.14799994 3025952
0.73684609 0.059245445 0.15199995 2894366
0.73581147 0.057801474 0.15699995 3025954
0.7349838 0.056349441 0.16099995 2960931
0.73687875 0.062259261 0.14399993 3025952
0.73585719 0.06076825 0.14899993 3025952
0.73503995 0.059274409 0.15299994 2894366
0.73401839 0.057833049 0.15799993 3025954
0.73320115 0.056383632 0.16199994 2960931
0.73525602 0.062259261 0.14399993 2894366
0.73424751 0.06076825 0.14899993 2894366
0.733239 0.059303373 0.15399998 3025952
0.73243219 0.057833049 0.15799993 3025954
0.73142374 0.056417819 0.16299993 2960933
0.73323506 0.062306736 0.14599997 2894366
0.73243874 0.060794603 0.14999998 3025952
0.73144329 0.059332337 0.15499997 3025952
0.73024875 0.05792778 0.16099995 3025952
0.72945243 0.056486201 0.16499996 3157540
