# .PCD v0.7 - Point Cloud Data file format
VERSION 0.7
FIELDS x y z rgb
SIZE 4 4 4 4
TYPE F F F U
COUNT 1 1 1 1
WIDTH 235
HEIGHT 1
VIEWPOINT 0 0 0 1 0 0 0
POINTS 235
DATA ascii
0.59638947 -0.014246963 0.17399997 11311008
0.59641248 -0.015634328 0.17499995 11113116
0.59643555 -0.017016463 0.17599994 11311008
0.59643555 -0.018555596 0.17599994 11377571
0.59643555 -0.020094737 0.17599994 11377571
0.59484512 -0.012702599 0.17399997 11442081
0.59487075 -0.014092572 0.17499995 11376288
0.59489638 -0.015477322 0.17599994 11310495
0.59489638 -0.017016463 0.17599994 11376801
0.59489638 -0.018555596 0.17599994 11706536
0.59489638 -0.020094737 0.17599994 10784666
0.59476817 -0.024023376 0.17099994 4271157
0.59469122 -0.026093639 0.16799998 3744815
0.59466559 -0.027828991 0.16699994 3810095
0.59463996 -0.029569559 0.16599995 3810095
0.5933007 -0.0096138641 0.17399997 11376549
0.5933007 -0.011158228 0.17399997 11311010
0.59332895 -0.012550816 0.17499995 11245215
0.59332895 -0.014092572 0.17499995 11245215
0.59335721 -0.015477322 0.17599994 10915735
0.59335721 -0.017016463 0.17599994 7690596
0.59338552 -0.018393353 0.17699999 2955045
0.59335721 -0.020094737 0.17599994 2957616
0.5933007 -0.021968789 0.17399997 2891823
0.59321594 -0.024023376 0.17099994 2760746
0.59313118 -0.026093639 0.16799998 2826793
0.59307468 -0.028004289 0.16599995 2957866
0.59304643 -0.029747471 0.16499996 2957866
0.59175634 -0.0096138641 0.17399997 11376803
0.59178722 -0.011009067 0.17499995 11311010
0.59178722 -0.012550816 0.17499995 11442592
0.59178722 -0.014092572 0.17499995 11442592
0.59181809 -0.015477322 0.17599994 4533302
0.59181809 -0.017016463 0.17599994 3020579
0.59181809 -0.018555596 0.17599994 3022891
0.59181809 -0.020094737 0.17599994 2498346
0.59175634 -0.021968789 0.17399997 2498346
0.59166378 -0.024023376 0.17099994 2366758
0.59157115 -0.026093639 0.16799998 2497061
0.5915094 -0.028004289 0.16599995 2693926
0.59144765 -0.029925384 0.16399997 2693926
0.59141678 -0.031676412 0.16299993 2693926
0.59135509 -0.033615798 0.16099995 2826026
0.59129333 -0.035565637 0.15899998 2695977
0.59126246 -0.037337571 0.15799993 2761770
0.59126246 -0.038923748 0.15799993 3025455
0.59027898 -0.0077816173 0.17599994 11442083
0.59027898 -0.0093207583 0.17599994 11376290
0.59027898 -0.010859899 0.17599994 11902118
0.59027898 -0.01239904 0.17599994 4270392
0.59027898 -0.013938181 0.17599994 3546669
0.59027898 -0.015477322 0.17599994 3087916
0.59027898 -0.017016463 0.17599994 2629164
0.59027898 -0.018555596 0.17599994 2365992
0.59027898 -0.020094737 0.17599994 3483958
0.59021199 -0.021968789 0.17399997 6642022
0.59011155 -0.024023376 0.17099994 11048867
0.59001112 -0.026093639 0.16799998 11311780
0.58994412 -0.028004289 0.16599995 11442594
0.58987719 -0.029925384 0.16399997 11574180
0.58984369 -0.031676412 0.16299993 11113629
0.58977669 -0.033615798 0.16099995 10127504
0.58967626 -0.037337571 0.15799993 2957866
0.58964276 -0.039114729 0.15699995 2235939
0.58964276 -0.04070352 0.15699995 2565420
0.58964276 -0.042292304 0.15699995 2565679
0.58881199 -0.009027645 0.17799997 6836571
0.58881199 -0.010561556 0.17799997 3151915
0.58881199 -0.012095474 0.17799997 2891823
0.58877593 -0.013783775 0.17699999 2891823
0.58877593 -0.015320309 0.17699999 1972004
0.58877593 -0.016856834 0.17699999 2431785
0.58877593 -0.018393353 0.17699999 4470339
0.58873981 -0.020094737 0.17599994 10588316
0.58866763 -0.021968789 0.17399997 11048867
0.58801788 -0.028165877 0.15599996 10916252
0.58783746 -0.030633777 0.15099996 10982045
0.58776522 -0.032594077 0.14899993 11047836
0.58776522 -0.034203775 0.14899993 11047836
0.58780134 -0.035630323 0.14999998 11113629
0.58787352 -0.036865905 0.15199995 10655131
0.58790964 -0.038279399 0.15299994 9734029
0.58780134 -0.040451564 0.14999998 4933452
0.58787352 -0.04167147 0.15199995 2499881
0.58790964 -0.043077126 0.15299994 2433834
0.58790964 -0.044676371 0.15299994 2631470
0.58790964 -0.046275616 0.15299994 2697263
0.58787352 -0.048078902 0.15199995 3288373
0.58735549 -0.0072058514 0.17999995 11639460
0.58735549 -0.0087345392 0.17999995 3217190
0.58731681 -0.010412388 0.17899996 3153711
0.58731681 -0.01194369 0.17899996 2629934
0.58727807 -0.013629384 0.17799997 2498348
0.58727807 -0.015163302 0.17799997 5458779
0.58727807 -0.016697213 0.17799997 10128537
0.58727807 -0.018231124 0.17799997 10916000
0.58592331 -0.040163048 0.14299995 10390678
0.58603942 -0.041215479 0.14599997 9671316
0.58607811 -0.042639427 0.14699996 9605780
0.58615553 -0.043861948 0.14899993 9408401
0.58623296 -0.045074001 0.15099996 4012350
0.58627164 -0.046477042 0.15199995 2235939
0.58627164 -0.048078902 0.15199995 2893102
0.58623296 -0.049887411 0.15099996 3090483
0.58623296 -0.051491879 0.15099996 3354168
0.5859921 -0.006630078 0.18399996 3479592
0.58595079 -0.0082948729 0.18299997 3283760
0.58590949 -0.0099648833 0.18199998 2628910
0.58582681 -0.011791915 0.17999995 2432301
0.58578551 -0.013474993 0.17899996 7761534
0.5857442 -0.015163302 0.17799997 10851488
0.5857442 -0.016697213 0.17799997 10981532
0.58433926 -0.044842966 0.14399993 9738136
0.58446318 -0.045869268 0.14699996 9408401
0.58458716 -0.046879895 0.14999998 6447716
0.58462846 -0.048282944 0.15099996 2169633
0.58458716 -0.050094061 0.14999998 2827309
0.58458716 -0.051701151 0.14999998 2894385
0.58458716 -0.053308226 0.14999998 3157039
0.58458716 -0.054915316 0.14999998 3354418
0.58458716 -0.056522392 0.14999998 9604753
0.58464962 -0.0030387491 0.18799996 12165292
0.58460569 -0.0046878532 0.18699998 3282733
0.58451784 -0.0064861402 0.18499994 3611698
0.58447385 -0.00814832 0.18399996 3087664
0.58442992 -0.0098157153 0.18299997 2628912
0.58438599 -0.011488348 0.18199998 8353153
0.58429813 -0.013320602 0.17999995 11182252
0.58425421 -0.015006296 0.17899996 10916768
0.58276039 -0.04788705 0.14499998 10066582
0.58284831 -0.04909911 0.14699996 10856098
0.58293617 -0.050300725 0.14899993 9210765
0.5829801 -0.051701151 0.14999998 2564904
0.58293617 -0.053520121 0.14899993 2893867
0.58293617 -0.055129819 0.14899993 3091246
0.58293617 -0.056739517 0.14899993 3222832
0.58289224 -0.058568932 0.14799994 3354420
0.58323491 -0.0027613193 0.18999994 3414833
0.58318835 -0.0044052005 0.18899995 3218998
0.58309531 -0.0061982498 0.18699998 3153205
0.5830487 -0.0078552142 0.18599993 2957623
0.58295566 -0.0096665546 0.18399996 8222339
0.58290911 -0.011336565 0.18299997 11115430
0.58286256 -0.013011806 0.18199998 11181223
0.58109373 -0.051334016 0.14399993 10987431
0.58127993 -0.052119695 0.14799994 11447982
0.58132648 -0.053520121 0.14899993 6644836
0.58132648 -0.055129819 0.14899993 2894635
0.58127993 -0.056956612 0.14799994 2893869
0.58123338 -0.05878865 0.14699996 3091248
0.58123338 -0.060403563 0.14699996 3156787
0.58202732 0.004018493 0.19599998 11709877
0.5819782 0.0024007261 0.19499993 12628923
0.58192903 0.00077775121 0.19399995 9997203
0.58183068 -0.00098655373 0.19199997 3481393
0.58178151 -0.0026225969 0.19099998 2957362
0.58173239 -0.0042638779 0.18999994 2629428
0.58168322 -0.0059103742 0.18899995 2366256
0.58158487 -0.0077086464 0.18699998 8485518
0.58148658 -0.0095173866 0.18499994 11776442
0.57956928 -0.052538224 0.14599997 10921638
0.57971674 -0.053520121 0.14899993 11776690
0.57971674 -0.055129819 0.14899993 8816005
0.57966763 -0.056956612 0.14799994 2170914
0.57961845 -0.05878865 0.14699996 2827563
0.57961845 -0.060403563 0.14699996 2960178
0.57956928 -0.062243424 0.14599997 3156789
0.57952011 -0.064088516 0.14499998 4867407
0.58054048 0.0025316104 0.19599998 10523807
0.58054048 0.0010447353 0.19599998 4273472
0.58043689 -0.00071435422 0.19399995 3219250
0.58038515 -0.0023451746 0.19299996 2564400
0.58033335 -0.0039812177 0.19199997 1842222
0.58022982 -0.0057664365 0.18999994 7039869
0.58017802 -0.0074155405 0.18899995 11515069
0.57789999 -0.054367639 0.14499998 11250603
0.57805526 -0.055344306 0.14799994 10790052
0.57805526 -0.056956612 0.14799994 11513775
0.57800353 -0.05878865 0.14699996 9210765
0.57800353 -0.060403563 0.14699996 2367012
0.57795173 -0.062243424 0.14599997 2894385
0.57789999 -0.064088516 0.14499998 3025971
0.5778482 -0.065938853 0.14399993 3092023
0.57916236 0.004275009 0.19799995 11315373
0.57916236 0.0027933568 0.19799995 2431783
0.579108 0.0011782199 0.19699997 2760748
0.57905358 -0.00044214725 0.19599998 2367275
0.57899916 -0.0020677447 0.19499993 1776681
0.57889044 -0.0038398877 0.19299996 10134447
0.57883602 -0.005478546 0.19199997 11581893
0.57872725 -0.0072689876 0.18999994 11909827
0.5763886 -0.055558808 0.14699996 10987431
0.5763886 -0.057173721 0.14699996 11316396
0.5763886 -0.05878865 0.14699996 11776690
0.57633424 -0.060625888 0.14599997 6446689
0.57627982 -0.062468372 0.14499998 2432805
0.57622546 -0.064316101 0.14399993 3090735
0.57622546 -0.065938853 0.14399993 3026228
0.57611668 -0.068027191 0.14199996 3288373
0.57779473 0.0060079694 0.19999999 9407376
0.57779473 0.00453154 0.19999999 5853019
0.57768071 0.0027933568 0.19799995 2629934
0.57762372 0.0011782199 0.19699997 2366762
0.57756668 -0.00044214725 0.19599998 2236459
0.57756668 -0.0019290224 0.19599998 1711660
0.5775097 -0.003557235 0.19499993 5198689
0.57745272 -0.005190663 0.19399995 5396068
0.57477367 -0.057173721 0.14699996 11513775
0.57471669 -0.059008367 0.14599997 11382189
0.57471669 -0.060625888 0.14599997 11382189
0.57465971 -0.062468372 0.14499998 10855590
0.57460266 -0.064316101 0.14399993 6184287
0.57454568 -0.066169031 0.14299995 2762283
0.5744887 -0.068027191 0.14199996 3157041
0.57631826 0.0074843913 0.19999999 4671057
0.57631826 0.0060079694 0.19999999 2236207
0.57631826 0.00453154 0.19999999 2367021
0.57625866 0.0029242337 0.19899994 2038826
0.57619905 0.001311712 0.19799995 2038826
0.57613945 -0.0003060475 0.19699997 2696756
0.57607985 -0.0019290224 0.19599998 2698553
0.57607985 -0.0034158975 0.19599998 3356483
0.57309914 -0.059008367 0.14599997 11447982
0.57303953 -0.060848229 0.14499998 11513775
0.57297993 -0.062693335 0.14399993 11645104
0.57297993 -0.064316101 0.14399993 11776690
0.57286072 -0.066399194 0.14199996 3881532
0.57484186 0.003055118 0.19999999 2038826
0.57484186 0.0015786886 0.19999999 2104619
0.5747174 -0.00016994029 0.19799995 2894389
0.57465518 -0.0017903075 0.19699997 2698807
0.57123268 -0.064771213 0.14199996 11579568
0.57336545 0.00010226667 0.19999999 2894646
0.5733006 -0.0015128851 0.19899994 2698807
0.57188898 -0.0013741627 0.19999999 3027000
