# .PCD v0.7 - Point Cloud Data file format
VERSION 0.7
FIELDS x y z rgb
SIZE 4 4 4 4
TYPE F F F U
COUNT 1 1 1 1
WIDTH 1112
HEIGHT 1
VIEWPOINT 0 0 0 1 0 0 0
POINTS 1112
DATA ascii
0.79130924 -0.094532721 0.15199995 11908009
0.79101348 -0.095852129 0.15299994 11447458
0.79071766 -0.097166322 0.15399998 11973804
0.79071766 -0.098762937 0.15399998 11579046
0.79071766 -0.10035958 0.15399998 11710119
0.79071766 -0.1019562 0.15399998 11315361
0.7904219 -0.10325734 0.15499997 12367279
0.7904219 -0.10485134 0.15499997 12104107
0.7904219 -0.10644536 0.15499997 12039084
0.7904219 -0.10803937 0.15499997 13024955
0.78941417 -0.09265364 0.15299994 11512738
0.78941417 -0.094252892 0.15299994 11973289
0.78912103 -0.095569678 0.15399998 11578533
0.78912103 -0.097166322 0.15399998 12039597
0.78912103 -0.098762937 0.15399998 11579046
0.78912103 -0.10035958 0.15399998 11775912
0.78912103 -0.1019562 0.15399998 11315361
0.78912103 -0.10355284 0.15399998 12367279
0.78912103 -0.10514946 0.15399998 11973291
0.78912103 -0.1067461 0.15399998 11972519
0.78912103 -0.10834271 0.15399998 12960186
0.78781497 -0.09265364 0.15299994 11381154
0.7875244 -0.093973063 0.15399998 11973291
0.7875244 -0.095569678 0.15399998 11578533
0.7875244 -0.097166322 0.15399998 12104877
0.7875244 -0.098762937 0.15399998 11644837
0.7875244 -0.10035958 0.15399998 11775912
0.7875244 -0.1019562 0.15399998 11381154
0.7875244 -0.10355284 0.15399998 12236463
0.7875244 -0.10514946 0.15399998 12104877
0.78781497 -0.10704684 0.15299994 12104875
0.78810549 -0.10894942 0.15199995 12499635
0.78621572 -0.09265364 0.15299994 11052702
0.78621572 -0.094252892 0.15299994 11776425
0.78592777 -0.095569678 0.15399998 11381154
0.78592777 -0.097166322 0.15399998 12104877
0.78592777 -0.098762937 0.15399998 11512738
0.78592777 -0.10035958 0.15399998 11973291
0.78592777 -0.1019562 0.15399998 11315361
0.78621572 -0.10384836 0.15299994 12104877
0.78650367 -0.1057457 0.15199995 11710119
0.78650367 -0.10734757 0.15199995 12499633
0.78679156 -0.10925276 0.15099996 13223358
0.78461647 -0.09265364 0.15299994 11052702
0.78461647 -0.094252892 0.15299994 11908011
0.78461647 -0.095852129 0.15299994 11447460
0.78433114 -0.097166322 0.15399998 12302256
0.78433114 -0.098762937 0.15399998 11709349
0.78433114 -0.10035958 0.15399998 12104107
0.78461647 -0.10224911 0.15299994 11314591
0.78461647 -0.10384836 0.15299994 12236463
0.7849018 -0.1057457 0.15199995 11644326
0.78547245 -0.10794903 0.14999998 12564656
0.78547245 -0.10955609 0.14999998 13485760
0.78301722 -0.091054417 0.15299994 6842472
0.78301722 -0.09265364 0.15299994 11117982
0.78301722 -0.094252892 0.15299994 11973291
0.78301722 -0.095852129 0.15299994 11578531
0.78273451 -0.097166322 0.15399998 12433840
0.78301722 -0.099050619 0.15299994 11775142
0.78301722 -0.10064987 0.15299994 12169646
0.78329992 -0.10254199 0.15199995 11380130
0.78329992 -0.10414385 0.15199995 12170416
0.78386533 -0.10634194 0.14999998 11710119
0.78386533 -0.10794903 0.14999998 12432557
0.78443074 -0.11016279 0.14799994 11708834
0.78141797 -0.091054417 0.15299994 6250078
0.78141797 -0.09265364 0.15299994 10789530
0.78141797 -0.094252892 0.15299994 11644839
0.78141797 -0.095852129 0.15299994 11578533
0.78141797 -0.097451381 0.15299994 12367277
0.78141797 -0.099050619 0.15299994 11774627
0.78141797 -0.10064987 0.15299994 11906728
0.78169811 -0.10254199 0.15199995 11446177
0.78169811 -0.10414385 0.15199995 12038830
0.78225827 -0.10634194 0.14999998 11775658
0.78253835 -0.10824976 0.14899993 12300971
0.78309858 -0.11046613 0.14699996 11511455
0.78337866 -0.11238701 0.14599997 8550256
0.78421891 -0.11493025 0.14299995 5787725
0.77981877 -0.091054417 0.15299994 6184285
0.77981877 -0.09265364 0.15299994 10658714
0.77981877 -0.094252892 0.15299994 11514023
0.77981877 -0.095852129 0.15299994 11512738
0.77981877 -0.097451381 0.15299994 12301484
0.77981877 -0.099050619 0.15299994 11445662
0.77981877 -0.10064987 0.15299994 11906728
0.78009623 -0.10254199 0.15199995 11446177
0.78037369 -0.10443936 0.15099996 12038830
0.78065115 -0.10634194 0.14999998 11709095
0.78148365 -0.10885122 0.14699996 12432557
0.78176111 -0.11076947 0.14599997 11511455
0.78231609 -0.11299894 0.14399993 8287598
0.78287101 -0.11523882 0.14199996 5458760
0.77821952 -0.091054417 0.15299994 5723987
0.77821952 -0.09265364 0.15299994 10527128
0.77821952 -0.094252892 0.15299994 11382437
0.77849436 -0.096134566 0.15199995 11117980
0.77821952 -0.097451381 0.15299994 11710117
0.77821952 -0.099050619 0.15299994 11248796
0.77849436 -0.10094015 0.15199995 11709349
0.77849436 -0.10254199 0.15199995 11314591
0.77876925 -0.10443936 0.15099996 12103853
0.77931899 -0.10664006 0.14899993 11643556
0.77959383 -0.1085505 0.14799994 12498350
0.78014356 -0.11076947 0.14599997 11511455
0.78069329 -0.11299894 0.14399993 7169119
0.78124309 -0.11523882 0.14199996 5392456
0.77634799 -0.090779804 0.15399998 5395022
0.77662027 -0.09265364 0.15299994 10592151
0.77662027 -0.094252892 0.15299994 11315874
0.77689248 -0.096134566 0.15199995 11315359
0.77662027 -0.097451381 0.15299994 11644324
0.77662027 -0.099050619 0.15299994 11248796
0.77689248 -0.10094015 0.15199995 11709349
0.77689248 -0.10254199 0.15199995 11248798
0.77743703 -0.10473486 0.14999998 12103853
0.77770925 -0.10664006 0.14899993 11643556
0.77825379 -0.10885122 0.14699996 12169898
0.77879828 -0.1110728 0.14499998 11314589
0.77961504 -0.11361084 0.14199996 7169378
0.77475137 -0.090779804 0.15399998 5525838
0.77502102 -0.09265364 0.15299994 10526358
0.77502102 -0.094252892 0.15299994 11315874
0.77502102 -0.095852129 0.15299994 11315361
0.77502102 -0.097451381 0.15299994 11578533
0.77502102 -0.099050619 0.15299994 11183003
0.77529067 -0.10094015 0.15199995 11643556
0.77529067 -0.10254199 0.15199995 11183005
0.77582991 -0.10473486 0.14999998 11709865
0.77609956 -0.10664006 0.14899993 11512740
0.77663887 -0.10885122 0.14699996 11775140
0.77717817 -0.1110728 0.14499998 10985624
0.77798706 -0.11361084 0.14199996 7629670
0.77315474 -0.090779804 0.15399998 5327944
0.77342176 -0.09265364 0.15299994 10591638
0.77342176 -0.094252892 0.15299994 11249568
0.77342176 -0.095852129 0.15299994 11315361
0.77342176 -0.097451381 0.15299994 11578533
0.77342176 -0.099050619 0.15299994 11183005
0.77368879 -0.10094015 0.15199995 11249568
0.77368879 -0.10254199 0.15199995 10920603
0.77422285 -0.10473486 0.14999998 11315620
0.77448988 -0.10664006 0.14899993 11250081
0.77502394 -0.10885122 0.14699996 11775140
0.77582502 -0.11137616 0.14399993 10854038
0.77635908 -0.11361084 0.14199996 7761256
0.77155811 -0.090779804 0.15399998 5327946
0.77182251 -0.09265364 0.15299994 10591638
0.77182251 -0.094252892 0.15299994 11315361
0.77208698 -0.096134566 0.15199995 11315361
0.77182251 -0.097451381 0.15299994 11512740
0.77182251 -0.099050619 0.15299994 11051419
0.77208698 -0.10094015 0.15199995 11249568
0.77208698 -0.10254199 0.15199995 10920603
0.77261579 -0.10473486 0.14999998 11249827
0.7728802 -0.10664006 0.14899993 11184288
0.77340901 -0.10885122 0.14699996 11643554
0.77393782 -0.1110728 0.14499998 11774629
0.7747311 -0.11361084 0.14199996 7827049
0.76996148 -0.090779804 0.15399998 5196360
0.77022332 -0.09265364 0.15299994 10723224
0.77022332 -0.094252892 0.15299994 11315361
0.7704851 -0.096134566 0.15199995 11380384
0.77022332 -0.097451381 0.15299994 11512740
0.77022332 -0.099050619 0.15299994 11117982
0.77022332 -0.10064987 0.15299994 11183775
0.7704851 -0.10254199 0.15199995 10854810
0.77074689 -0.10443936 0.15099996 11119013
0.77127051 -0.10664006 0.14899993 11118241
0.77179408 -0.10885122 0.14699996 11643554
0.77231771 -0.1110728 0.14499998 12037801
0.77310312 -0.11361084 0.14199996 8221807
0.76836485 -0.090779804 0.15399998 5064774
0.76862407 -0.09265364 0.15299994 10723224
0.76862407 -0.094252892 0.15299994 11381154
0.76862407 -0.095852129 0.15299994 11380382
0.76862407 -0.097451381 0.15299994 11381154
0.76862407 -0.099050619 0.15299994 11183775
0.76862407 -0.10064987 0.15299994 11183521
0.76888323 -0.10254199 0.15199995 10854556
0.76914239 -0.10443936 0.15099996 11119013
0.76966083 -0.10664006 0.14899993 11052448
0.77017915 -0.10885122 0.14699996 11643554
0.77069753 -0.1110728 0.14499998 12235178
0.77147514 -0.11361084 0.14199996 8616563
0.76676822 -0.090779804 0.15399998 4998979
0.76702482 -0.09265364 0.15299994 10854040
0.76702482 -0.094252892 0.15299994 11446177
0.76702482 -0.095852129 0.15299994 11314591
0.76702482 -0.097451381 0.15299994 11511970
0.76702482 -0.099050619 0.15299994 11052189
0.76702482 -0.10064987 0.15299994 11183521
0.76728141 -0.10254199 0.15199995 10854556
0.76753795 -0.10443936 0.15099996 11249829
0.76779455 -0.10634194 0.14999998 11644585
0.76856428 -0.10885122 0.14699996 11578533
0.76882082 -0.11076947 0.14599997 12169387
0.76959056 -0.11330489 0.14299995 8682358
0.76517159 -0.090779804 0.15399998 4736320
0.76542556 -0.09265364 0.15299994 10592151
0.76542556 -0.094252892 0.15299994 11118495
0.76542556 -0.095852129 0.15299994 11052189
0.76517159 -0.097166322 0.15399998 11643556
0.76542556 -0.099050619 0.15299994 11052189
0.76517159 -0.10035958 0.15399998 11184288
0.76567954 -0.10254199 0.15199995 10789530
0.76567954 -0.10414385 0.15199995 11184034
0.76618743 -0.10634194 0.14999998 11775658
0.76669538 -0.1085505 0.14799994 11511970
0.76720333 -0.11076947 0.14599997 12366766
0.7679652 -0.11330489 0.14299995 9077116
0.76357496 -0.090779804 0.15399998 4670527
0.76357496 -0.092376418 0.15399998 10592151
0.76357496 -0.093973063 0.15399998 11118495
0.76382631 -0.095852129 0.15299994 10855323
0.76357496 -0.097166322 0.15399998 11512740
0.76357496 -0.098762937 0.15399998 11052189
0.76357496 -0.10035958 0.15399998 11250081
0.76382631 -0.10224911 0.15299994 10789530
0.76407766 -0.10414385 0.15199995 11184034
0.76458037 -0.10634194 0.14999998 11775658
0.76508307 -0.1085505 0.14799994 11446177
0.76558578 -0.11076947 0.14599997 12366766
0.76608849 -0.11299894 0.14399993 9208702
0.76197833 -0.090779804 0.15399998 4473918
0.76197833 -0.092376418 0.15399998 10395542
0.76197833 -0.093973063 0.15399998 10921886
0.76222706 -0.095852129 0.15299994 11052702
0.76197833 -0.097166322 0.15399998 11512740
0.76197833 -0.098762937 0.15399998 11052189
0.76197833 -0.10035958 0.15399998 11184288
0.76197833 -0.1019562 0.15399998 10657944
0.76247579 -0.10414385 0.15199995 11249827
0.76297331 -0.10634194 0.14999998 11776425
0.76322204 -0.10824976 0.14899993 11512738
0.76396823 -0.11076947 0.14599997 11709349
0.76446569 -0.11299894 0.14399993 9538180
0.7603817 -0.090779804 0.15399998 4408125
0.7603817 -0.092376418 0.15399998 10198161
0.7603817 -0.093973063 0.15399998 11447458
0.7603817 -0.095569678 0.15399998 11052700
0.7603817 -0.097166322 0.15399998 11512740
0.7603817 -0.098762937 0.15399998 10920603
0.7603817 -0.10035958 0.15399998 11184288
0.76062787 -0.10224911 0.15299994 10657944
0.76087397 -0.10414385 0.15199995 11118241
0.76136619 -0.10634194 0.14999998 11775912
0.76185846 -0.1085505 0.14799994 11775138
0.76235068 -0.11076947 0.14599997 11775142
0.76284295 -0.11299894 0.14399993 9735559
0.76333517 -0.11523882 0.14199996 5919060
0.75878507 -0.090779804 0.15399998 4144183
0.75878507 -0.092376418 0.15399998 10196878
0.75878507 -0.093973063 0.15399998 11381154
0.75878507 -0.095569678 0.15399998 11117982
0.75878507 -0.097166322 0.15399998 11381154
0.75878507 -0.098762937 0.15399998 10854810
0.75878507 -0.10035958 0.15399998 10986909
0.75878507 -0.1019562 0.15399998 10723737
0.7592721 -0.10414385 0.15199995 11183775
0.75975913 -0.10634194 0.14999998 11775912
0.76000261 -0.10824976 0.14899993 11709347
0.76048964 -0.11046613 0.14699996 11840420
0.76122022 -0.11299894 0.14399993 10327181
0.76170719 -0.11523882 0.14199996 5853267
0.75718844 -0.090779804 0.15399998 3881781
0.75718844 -0.092376418 0.15399998 10526356
0.75718844 -0.093973063 0.15399998 11315874
0.75718844 -0.095569678 0.15399998 10986909
0.75718844 -0.097166322 0.15399998 11381154
0.75718844 -0.098762937 0.15399998 10854810
0.75718844 -0.10035958 0.15399998 10986909
0.75718844 -0.1019562 0.15399998 11446177
0.75767022 -0.10414385 0.15199995 11314591
0.75815201 -0.10634194 0.14999998 11775140
0.75839293 -0.10824976 0.14899993 11643554
0.75911564 -0.11076947 0.14599997 11774627
0.75959742 -0.11299894 0.14399993 10392974
0.76007921 -0.11523882 0.14199996 5787727
0.75559181 -0.090779804 0.15399998 3815988
0.75559181 -0.092376418 0.15399998 10592149
0.75559181 -0.093973063 0.15399998 11315874
0.75559181 -0.095569678 0.15399998 10986909
0.75559181 -0.097166322 0.15399998 11512740
0.75535351 -0.098475285 0.15499997 10854810
0.75559181 -0.10035958 0.15399998 10986655
0.75559181 -0.1019562 0.15399998 11445923
0.75606835 -0.10414385 0.15199995 11314337
0.75654495 -0.10634194 0.14999998 11643554
0.75678325 -0.10824976 0.14899993 11511968
0.75749809 -0.11076947 0.14599997 11774629
0.75797468 -0.11299894 0.14399993 10458769
0.75845122 -0.11523882 0.14199996 5853007
0.75399518 -0.092376418 0.15399998 10197393
0.75399518 -0.093973063 0.15399998 11250081
0.75399518 -0.095569678 0.15399998 10855323
0.75399518 -0.097166322 0.15399998 11315107
0.7537595 -0.098475285 0.15499997 10788763
0.75399518 -0.10035958 0.15399998 10920349
0.75399518 -0.1019562 0.15399998 11446177
0.75446653 -0.10414385 0.15199995 11380384
0.75493789 -0.10634194 0.14999998 11380382
0.75517356 -0.10824976 0.14899993 11446175
0.75564492 -0.11046613 0.14699996 11446175
0.75635189 -0.11299894 0.14399993 10788245
0.75682324 -0.11523882 0.14199996 5721419
0.75239855 -0.092376418 0.15399998 10131600
0.75239855 -0.093973063 0.15399998 11184288
0.75239855 -0.095569678 0.15399998 10789530
0.75239855 -0.097166322 0.15399998 11183775
0.7521655 -0.098475285 0.15499997 10788763
0.7521655 -0.10006931 0.15499997 10920603
0.75239855 -0.1019562 0.15399998 11117982
0.7526316 -0.10384836 0.15299994 11183775
0.75309771 -0.10604382 0.15099996 11380382
0.75356388 -0.10824976 0.14899993 11380382
0.75402999 -0.11046613 0.14699996 11314589
0.7544961 -0.11269296 0.14499998 10722452
0.75519526 -0.11523882 0.14199996 5458760
0.75080192 -0.092376418 0.15399998 10000014
0.75080192 -0.093973063 0.15399998 10920603
0.75080192 -0.095569678 0.15399998 10723224
0.75080192 -0.097166322 0.15399998 10920603
0.75057149 -0.098475285 0.15499997 10722970
0.75057149 -0.10006931 0.15499997 10920603
0.75080192 -0.1019562 0.15399998 11117982
0.75103235 -0.10384836 0.15299994 11315361
0.75149328 -0.10604382 0.15099996 11578531
0.7519542 -0.10824976 0.14899993 11511968
0.75241506 -0.11046613 0.14699996 11183005
0.75310636 -0.11299894 0.14399993 10590868
0.75356728 -0.11523882 0.14199996 5196360
0.74920529 -0.092376418 0.15399998 9868428
0.74920529 -0.093973063 0.15399998 10920603
0.74920529 -0.095569678 0.15399998 10789017
0.74920529 -0.097166322 0.15399998 11052189
0.74897748 -0.098475285 0.15499997 10722970
0.74897748 -0.10006931 0.15499997 10920349
0.74920529 -0.1019562 0.15399998 11117982
0.74966097 -0.10414385 0.15199995 11315361
0.75011665 -0.10634194 0.14999998 11644324
0.75034446 -0.10824976 0.14899993 11643552
0.75102794 -0.11076947 0.14599997 11183005
0.75148362 -0.11299894 0.14399993 10590868
0.7519393 -0.11523882 0.14199996 5064774
0.74738348 -0.092099212 0.15499997 10065807
0.74760866 -0.093973063 0.15399998 11052189
0.74760866 -0.095569678 0.15399998 10789017
0.74760866 -0.097166322 0.15399998 11314591
0.74738348 -0.098475285 0.15499997 10789017
0.74760866 -0.10035958 0.15399998 10920351
0.74760866 -0.1019562 0.15399998 11380384
0.74805909 -0.10414385 0.15199995 11446177
0.74850953 -0.10634194 0.14999998 11709345
0.74896002 -0.1085505 0.14799994 11446173
0.74941039 -0.11076947 0.14599997 10920603
0.74986088 -0.11299894 0.14399993 10854810
0.75031132 -0.11523882 0.14199996 4867908
0.74601203 -0.092376418 0.15399998 10131087
0.74601203 -0.093973063 0.15399998 11183005
0.74601203 -0.095569678 0.15399998 10919833
0.74601203 -0.097166322 0.15399998 11445923
0.74601203 -0.098762937 0.15399998 10591384
0.74601203 -0.10035958 0.15399998 10196880
0.74601203 -0.1019562 0.15399998 10854038
0.74645722 -0.10414385 0.15199995 11314589
0.74690247 -0.10634194 0.14999998 11380380
0.74734771 -0.1085505 0.14799994 11183001
0.7477929 -0.11076947 0.14599997 10920601
0.74823809 -0.11299894 0.14399993 10723222
0.74868333 -0.11523882 0.14199996 4998728
0.7444154 -0.092376418 0.15399998 10131087
0.7444154 -0.093973063 0.15399998 11051419
0.7444154 -0.095569678 0.15399998 10854040
0.7441954 -0.096881278 0.15499997 10788763
0.7441954 -0.098475285 0.15499997 10196626
0.7444154 -0.10035958 0.15399998 9407362
0.7444154 -0.1019562 0.15399998 10328464
0.7448554 -0.10414385 0.15199995 11052187
0.74529541 -0.10634194 0.14999998 11380380
0.74573541 -0.1085505 0.14799994 11051415
0.74617535 -0.11076947 0.14599997 10854808
0.74661535 -0.11299894 0.14399993 10920601
0.74260139 -0.090505205 0.15499997 9868174
0.74260139 -0.092099212 0.15499997 10131087
0.74260139 -0.093693234 0.15499997 10985626
0.74281877 -0.095569678 0.15399998 10525075
0.74260139 -0.096881278 0.15499997 8156275
0.74260139 -0.098475285 0.15499997 3945274
0.74281877 -0.10035958 0.15399998 4340800
0.74281877 -0.1019562 0.15399998 8947842
0.74325353 -0.10414385 0.15199995 9934737
0.74368829 -0.10634194 0.14999998 10920601
0.74412304 -0.1085505 0.14799994 11183001
0.7445578 -0.11076947 0.14599997 10985626
0.74499261 -0.11299894 0.14399993 11051419
0.74100739 -0.090505205 0.15499997 9605772
0.74100739 -0.092099212 0.15499997 10196880
0.74100739 -0.093693234 0.15499997 10919833
0.74100739 -0.095287241 0.15499997 10459282
0.74122214 -0.097166322 0.15399998 6774109
0.74100739 -0.098475285 0.15499997 3287090
0.74122214 -0.10035958 0.15399998 4669765
0.74122214 -0.1019562 0.15399998 8092535
0.74165165 -0.10414385 0.15199995 9474188
0.74208122 -0.10634194 0.14999998 10789530
0.74251074 -0.1085505 0.14799994 11183003
0.74294031 -0.11076947 0.14599997 10919833
0.74336982 -0.11299894 0.14399993 11314591
0.73941338 -0.090505205 0.15499997 9540236
0.73941338 -0.092099212 0.15499997 9868428
0.73941338 -0.093693234 0.15499997 10723224
0.73941338 -0.095287241 0.15499997 10262673
0.73941338 -0.096881278 0.15499997 10129550
0.73941338 -0.098475285 0.15499997 7761266
0.73941338 -0.10006931 0.15499997 6051929
0.73962551 -0.1019562 0.15399998 8553086
0.73983765 -0.10384836 0.15299994 9539981
0.7404741 -0.10634194 0.14999998 10789276
0.74089843 -0.1085505 0.14799994 10854810
0.74132276 -0.11076947 0.14599997 10854040
0.74174702 -0.11299894 0.14399993 11248798
0.73781931 -0.090505205 0.15499997 9408652
0.73781931 -0.092099212 0.15499997 9736588
0.73781931 -0.093693234 0.15499997 10657431
0.73781931 -0.095287241 0.15499997 10394259
0.73781931 -0.096881278 0.15499997 10854810
0.73781931 -0.098475285 0.15499997 10591384
0.73781931 -0.10006931 0.15499997 10394520
0.73781931 -0.10166331 0.15499997 10197141
0.73823845 -0.10384836 0.15299994 10328727
0.73865747 -0.10604382 0.15099996 10723483
0.73907661 -0.10824976 0.14899993 10788763
0.7397052 -0.11076947 0.14599997 10657177
0.74012429 -0.11299894 0.14399993 11314337
0.73622537 -0.090505205 0.15499997 9474445
0.73622537 -0.092099212 0.15499997 10065553
0.73622537 -0.093693234 0.15499997 10723224
0.73622537 -0.095287241 0.15499997 10591638
0.73622537 -0.096881278 0.15499997 10920603
0.73622537 -0.098475285 0.15499997 10657431
0.73622537 -0.10006931 0.15499997 10657692
0.73622537 -0.10166331 0.15499997 10394518
0.73643225 -0.10355284 0.15399998 10723483
0.73705304 -0.10604382 0.15099996 10789276
0.73746693 -0.10824976 0.14899993 10854556
0.73808765 -0.11076947 0.14599997 10722970
0.73850155 -0.11299894 0.14399993 11249314
0.73442698 -0.090230606 0.15599996 9539981
0.73442698 -0.091822006 0.15599996 9868944
0.73442698 -0.09341342 0.15599996 10921886
0.73442698 -0.095004804 0.15599996 10461335
0.7346313 -0.096881278 0.15499997 11118495
0.7346313 -0.098475285 0.15499997 10854810
0.7346313 -0.10006931 0.15499997 10723737
0.7346313 -0.10166331 0.15499997 10657690
0.73483562 -0.10355284 0.15399998 10986655
0.73524427 -0.1057457 0.15199995 10855069
0.73585719 -0.10824976 0.14899993 11052448
0.7364701 -0.11076947 0.14599997 10723483
0.73687875 -0.11299894 0.14399993 11184034
0.73283559 -0.090230606 0.15599996 9539981
0.73283559 -0.091822006 0.15599996 10132116
0.73283559 -0.09341342 0.15599996 10987425
0.73283559 -0.095004804 0.15599996 10526874
0.73283559 -0.096596219 0.15599996 11118495
0.73283559 -0.098187618 0.15599996 10920603
0.73283559 -0.099779032 0.15599996 10854810
0.73303729 -0.10166331 0.15499997 10723224
0.73303729 -0.10325734 0.15499997 11052189
0.7336424 -0.1057457 0.15199995 11052189
0.73424751 -0.10824976 0.14899993 11117982
0.73465091 -0.11046613 0.14699996 10854556
0.73525602 -0.11299894 0.14399993 11380900
0.73104513 -0.089956008 0.15699995 8947844
0.73104513 -0.0915448 0.15699995 9934737
0.73104513 -0.093133591 0.15699995 10921632
0.73104513 -0.094722383 0.15699995 10461081
0.73104513 -0.096311174 0.15699995 11052448
0.73104513 -0.097899951 0.15699995 10789276
0.73104513 -0.099488758 0.15699995 10854810
0.73124421 -0.10137043 0.15599996 10723224
0.73144329 -0.10325734 0.15499997 11117982
0.73204052 -0.1057457 0.15199995 11117982
0.73243874 -0.10794903 0.14999998 11183005
0.73303598 -0.11046613 0.14699996 10919579
0.73363328 -0.11299894 0.14399993 11643302
0.72945631 -0.089956008 0.15699995 9013637
0.72945631 -0.0915448 0.15699995 9671565
0.72945631 -0.093133591 0.15699995 10658460
0.72945631 -0.094722383 0.15699995 10395288
0.72945631 -0.096311174 0.15699995 10855839
0.72945631 -0.097899951 0.15699995 10723483
0.72945631 -0.099488758 0.15699995 10855323
0.72945631 -0.10107753 0.15699995 10789017
0.72965276 -0.10296183 0.15599996 11183775
0.73024225 -0.10544758 0.15299994 11117982
0.73083162 -0.10794903 0.14999998 11182751
0.7312246 -0.11016279 0.14799994 10919579
0.73201048 -0.11299894 0.14399993 11709095
0.72786754 -0.089956008 0.15699995 8947591
0.72786754 -0.0915448 0.15699995 9868944
0.72786754 -0.093133591 0.15699995 10658460
0.72786754 -0.094722383 0.15699995 10461081
0.72786754 -0.096311174 0.15699995 11052448
0.72786754 -0.097899951 0.15699995 10789276
0.72786754 -0.099488758 0.15699995 10855323
0.72786754 -0.10107753 0.15699995 10854810
0.72806138 -0.10296183 0.15599996 11183775
0.72844911 -0.10514946 0.15399998 11183005
0.72903073 -0.10764829 0.15099996 11380384
0.72961229 -0.11016279 0.14799994 10919579
0.73019385 -0.11269296 0.14499998 11643302
0.72608751 -0.089681424 0.15799993 8947591
0.72608751 -0.091267593 0.15799993 10262934
0.72608751 -0.092853777 0.15799993 10855071
0.72608751 -0.094439946 0.15799993 10657692
0.72608751 -0.09602613 0.15799993 11052448
0.72608751 -0.097612299 0.15799993 10855069
0.72608751 -0.099198483 0.15799993 11052702
0.72627872 -0.10107753 0.15699995 10854810
0.72627872 -0.10266634 0.15699995 11183775
0.72685248 -0.10514946 0.15399998 11446177
0.72723496 -0.10734757 0.15199995 11446177
0.72780871 -0.10985944 0.14899993 11051419
0.72450131 -0.089681424 0.15799993 8750212
0.72450131 -0.091267593 0.15799993 10328727
0.72450131 -0.092853777 0.15799993 10855071
0.72450131 -0.094439946 0.15799993 10657690
0.72450131 -0.09602613 0.15799993 11052448
0.72450131 -0.097612299 0.15799993 10789276
0.72450131 -0.099198483 0.15799993 10986909
0.72468996 -0.10107753 0.15699995 10919833
0.72468996 -0.10266634 0.15699995 11248798
0.7250672 -0.10485134 0.15499997 11315361
0.7254445 -0.10704684 0.15299994 10854810
0.72619903 -0.10985944 0.14899993 10920603
0.72291517 -0.089681424 0.15799993 8618626
0.72291517 -0.091267593 0.15799993 10131348
0.72291517 -0.092853777 0.15799993 10789278
0.72291517 -0.094439946 0.15799993 10657692
0.72291517 -0.09602613 0.15799993 11052450
0.72291517 -0.097612299 0.15799993 10789276
0.72291517 -0.099198483 0.15799993 10854810
0.72291517 -0.10078465 0.15799993 10722970
0.72291517 -0.10237084 0.15799993 11051935
0.72328717 -0.10455323 0.15599996 10986655
0.72365922 -0.1067461 0.15399998 10723737
0.72440332 -0.10955609 0.14999998 10854810
0.72132897 -0.089681424 0.15799993 8158075
0.72132897 -0.091267593 0.15799993 10065553
0.72132897 -0.092853777 0.15799993 10920603
0.72132897 -0.094439946 0.15799993 10788763
0.72114557 -0.095741071 0.15899998 10986655
0.72132897 -0.097612299 0.15799993 10789276
0.72132897 -0.099198483 0.15799993 10920603
0.72132897 -0.10078465 0.15799993 10657177
0.72132897 -0.10237084 0.15799993 10591897
0.72169578 -0.10455323 0.15599996 10855069
0.72206259 -0.1067461 0.15399998 10789530
0.7227962 -0.10955609 0.14999998 10920603
0.71974277 -0.089681424 0.15799993 8092535
0.71974277 -0.091267593 0.15799993 10000530
0.71956199 -0.092573933 0.15899998 11117982
0.71956199 -0.094157495 0.15899998 10788763
0.71956199 -0.095741071 0.15899998 11117728
0.71956199 -0.097324617 0.15899998 10920349
0.71974277 -0.099198483 0.15799993 11052189
0.71974277 -0.10078465 0.15799993 10591638
0.71974277 -0.10237084 0.15799993 10526104
0.71992356 -0.10425512 0.15699995 10855069
0.72046596 -0.1067461 0.15399998 10855069
0.72100836 -0.10925276 0.15099996 10854810
0.71797842 -0.089406811 0.15899998 7894903
0.71797842 -0.090990357 0.15899998 10263704
0.71797842 -0.092573933 0.15899998 11118241
0.71797842 -0.094157495 0.15899998 10722972
0.71797842 -0.095741071 0.15899998 11315109
0.71797842 -0.097324617 0.15899998 10920349
0.71815664 -0.099198483 0.15799993 11250081
0.71815664 -0.10078465 0.15799993 10789530
0.71815664 -0.10237084 0.15799993 10657944
0.71851295 -0.10455323 0.15599996 11052702
0.71886933 -0.1067461 0.15399998 10854558
0.7192257 -0.10894942 0.15199995 11051419
0.71639484 -0.089406811 0.15899998 7368561
0.71639484 -0.090990357 0.15899998 10000532
0.71639484 -0.092573933 0.15899998 11052448
0.71639484 -0.094157495 0.15899998 10657179
0.71657044 -0.09602613 0.15799993 11315109
0.71657044 -0.097612299 0.15799993 10920349
0.71657044 -0.099198483 0.15799993 11315874
0.71657044 -0.10078465 0.15799993 10789017
0.71657044 -0.10237084 0.15799993 10854810
0.71674597 -0.10425512 0.15699995 11117982
0.7172727 -0.1067461 0.15399998 10920349
0.71762383 -0.10894942 0.15199995 11051419
0.71481127 -0.089406811 0.15899998 7236975
0.71481127 -0.090990357 0.15899998 9868946
0.71481127 -0.092573933 0.15899998 10986909
0.71481127 -0.094157495 0.15899998 10657179
0.71481127 -0.095741071 0.15899998 11249316
0.71498424 -0.097612299 0.15799993 11051935
0.71498424 -0.099198483 0.15799993 11183775
0.71498424 -0.10078465 0.15799993 10723224
0.71498424 -0.10237084 0.15799993 10920603
0.71515721 -0.10425512 0.15699995 11117982
0.71567607 -0.1067461 0.15399998 10853786
0.71602201 -0.10894942 0.15199995 11050906
0.71322775 -0.089406811 0.15899998 7236977
0.71322775 -0.090990357 0.15899998 10066323
0.71322775 -0.092573933 0.15899998 11117982
0.71322775 -0.094157495 0.15899998 10657179
0.71322775 -0.095741071 0.15899998 11249316
0.7133981 -0.097612299 0.15799993 10920349
0.7133981 -0.099198483 0.15799993 11052189
0.7133981 -0.10078465 0.15799993 10723224
0.7133981 -0.10237084 0.15799993 10854810
0.71356845 -0.10425512 0.15699995 11052189
0.71407944 -0.1067461 0.15399998 10722970
0.71442014 -0.10894942 0.15199995 10919833
0.71164417 -0.089406811 0.15899998 6973805
0.71164417 -0.090990357 0.15899998 9999762
0.71164417 -0.092573933 0.15899998 11117728
0.71164417 -0.094157495 0.15899998 10657179
0.71164417 -0.095741071 0.15899998 11183523
0.7118119 -0.097612299 0.15799993 10788763
0.7118119 -0.099198483 0.15799993 10920349
0.7118119 -0.10078465 0.15799993 10789017
0.7118119 -0.10237084 0.15799993 10657431
0.71214736 -0.10455323 0.15599996 10789017
0.71248281 -0.1067461 0.15399998 10722970
0.71281826 -0.10894942 0.15199995 10854040
0.7100606 -0.089406811 0.15899998 6842474
0.7100606 -0.090990357 0.15899998 10461083
0.7100606 -0.092573933 0.15899998 11117728
0.7100606 -0.094157495 0.15899998 10591386
0.7100606 -0.095741071 0.15899998 11051937
0.7102257 -0.097612299 0.15799993 10591386
0.7102257 -0.099198483 0.15799993 10722972
0.7102257 -0.10078465 0.15799993 10789017
0.7102257 -0.10237084 0.15799993 10789017
0.71055597 -0.10455323 0.15599996 10854810
0.71088618 -0.1067461 0.15399998 10459798
0.71138155 -0.10925276 0.15099996 10854040
0.70847702 -0.089406811 0.15899998 6381923
0.70847702 -0.090990357 0.15899998 10197911
0.70831454 -0.092294119 0.15999997 11052189
0.70847702 -0.094157495 0.15899998 10591384
0.70847702 -0.095741071 0.15899998 10920349
0.70847702 -0.097324617 0.15899998 10459800
0.70863956 -0.099198483 0.15799993 10788765
0.70863956 -0.10078465 0.15799993 10789017
0.70863956 -0.10237084 0.15799993 10723224
0.70896459 -0.10455323 0.15599996 11052189
0.70928955 -0.1067461 0.15399998 10591384
0.70977706 -0.10925276 0.15099996 10657431
0.70673358 -0.089132212 0.15999997 6316130
0.70673358 -0.090713151 0.15999997 10000530
0.70673358 -0.092294119 0.15999997 10920603
0.70673358 -0.093875058 0.15999997 10657177
0.70673358 -0.095456012 0.15999997 10920349
0.7068935 -0.097324617 0.15899998 10657179
0.7068935 -0.098908193 0.15899998 10854558
0.70705336 -0.10078465 0.15799993 10657177
0.70705336 -0.10237084 0.15799993 10788763
0.70737314 -0.10455323 0.15599996 10920349
0.70769292 -0.1067461 0.15399998 10854556
0.70817262 -0.10925276 0.15099996 10789017
0.70515263 -0.089132212 0.15999997 6118751
0.70515263 -0.090713151 0.15999997 10000530
0.70515263 -0.092294119 0.15999997 10854810
0.70515263 -0.093875058 0.15999997 10459798
0.70515263 -0.095456012 0.15999997 10920349
0.70515263 -0.097036965 0.15999997 10722972
0.70530993 -0.098908193 0.15899998 10920351
0.70546722 -0.10078465 0.15799993 10722970
0.70546722 -0.10237084 0.15799993 10722970
0.70578176 -0.10455323 0.15599996 10854556
0.70609629 -0.1067461 0.15399998 10788763
0.70656812 -0.10925276 0.15099996 10789017
0.70357168 -0.089132212 0.15999997 5986910
0.70357168 -0.090713151 0.15999997 9868946
0.70357168 -0.092294119 0.15999997 10591384
0.70357168 -0.093875058 0.15999997 10459798
0.70357168 -0.095456012 0.15999997 10788763
0.70357168 -0.097036965 0.15999997 10657177
0.70372635 -0.098908193 0.15899998 10920349
0.70372635 -0.10049174 0.15899998 10722970
0.70388103 -0.10237084 0.15799993 10788763
0.70419037 -0.10455323 0.15599996 10920349
0.70449966 -0.1067461 0.15399998 10854556
0.70496368 -0.10925276 0.15099996 10919833
0.70199072 -0.089132212 0.15999997 5986910
0.70199072 -0.090713151 0.15999997 9934739
0.70199072 -0.092294119 0.15999997 10394520
0.70199072 -0.093875058 0.15999997 10591384
0.70199072 -0.095456012 0.15999997 10854556
0.70199072 -0.097036965 0.15999997 10394005
0.70199072 -0.098617919 0.15999997 10459798
0.70214278 -0.10049174 0.15899998 10657177
0.70229483 -0.10237084 0.15799993 10854556
0.70259893 -0.10455323 0.15599996 10920349
0.70290303 -0.1067461 0.15399998 10788763
0.70320714 -0.10894942 0.15199995 10788247
0.70040977 -0.089132212 0.15999997 5921117
0.70040977 -0.090713151 0.15999997 9868946
0.70040977 -0.092294119 0.15999997 10526106
0.70040977 -0.093875058 0.15999997 10591384
0.70040977 -0.095456012 0.15999997 10854556
0.70040977 -0.097036965 0.15999997 10394005
0.70040977 -0.098617919 0.15999997 10394005
0.7005592 -0.10049174 0.15899998 10657177
0.70070869 -0.10237084 0.15799993 10657177
0.70100754 -0.10455323 0.15599996 10854556
0.7013064 -0.1067461 0.15399998 10854556
0.70175475 -0.10925276 0.15099996 10854808
0.69882882 -0.089132212 0.15999997 6052703
0.69882882 -0.090713151 0.15999997 10066325
0.69882882 -0.092294119 0.15999997 10591899
0.69882882 -0.093875058 0.15999997 10591384
0.69882882 -0.095456012 0.15999997 10788763
0.69882882 -0.097036965 0.15999997 10393235
0.69882882 -0.098617919 0.15999997 10524821
0.69882882 -0.10019886 0.15999997 10657177
0.69912249 -0.10237084 0.15799993 10920349
0.69926929 -0.10425512 0.15699995 11117728
0.69970977 -0.1067461 0.15399998 10920349
0.70000345 -0.10894942 0.15199995 11052187
0.69724786 -0.089132212 0.15999997 5986910
0.69724786 -0.090713151 0.15999997 10461083
0.69724786 -0.092294119 0.15999997 10461083
0.69724786 -0.093875058 0.15999997 10394518
0.69724786 -0.095456012 0.15999997 10723483
0.69724786 -0.097036965 0.15999997 10393235
0.69724786 -0.098617919 0.15999997 10787993
0.69724786 -0.10019886 0.15999997 10722970
0.69753629 -0.10237084 0.15799993 10591384
0.69768053 -0.10425512 0.15699995 11051935
0.69811314 -0.1067461 0.15399998 11051935
0.69840157 -0.10894942 0.15199995 10920601
0.69580853 -0.089406811 0.15899998 5329237
0.69566691 -0.090713151 0.15999997 10000536
0.69566691 -0.092294119 0.15999997 10461083
0.69566691 -0.093875058 0.15999997 10197911
0.69566691 -0.095456012 0.15999997 10526876
0.69566691 -0.097036965 0.15999997 10328212
0.69566691 -0.098617919 0.15999997 10854556
0.69566691 -0.10019886 0.15999997 11117728
0.69580853 -0.10207532 0.15899998 10657177
0.69609171 -0.10425512 0.15699995 10920349
0.69651651 -0.1067461 0.15399998 10920349
0.69679976 -0.10894942 0.15199995 10920603
0.69422495 -0.089406811 0.15899998 5395030
0.69422495 -0.090990357 0.15899998 10066325
0.69408596 -0.092294119 0.15999997 10395288
0.69408596 -0.093875058 0.15999997 10197911
0.69408596 -0.095456012 0.15999997 10592669
0.69408596 -0.097036965 0.15999997 10394005
0.69408596 -0.098617919 0.15999997 10854556
0.69408596 -0.10019886 0.15999997 11117728
0.69422495 -0.10207532 0.15899998 10591384
0.69450295 -0.10425512 0.15699995 10657177
0.69491988 -0.1067461 0.15399998 11051935
0.69519788 -0.10894942 0.15199995 11052189
0.69264138 -0.089406811 0.15899998 5197651
0.69264138 -0.090990357 0.15899998 10066072
0.69264138 -0.092573933 0.15899998 10461081
0.692505 -0.093875058 0.15999997 10461081
0.692505 -0.095456012 0.15999997 10658460
0.692505 -0.097036965 0.15999997 10591897
0.692505 -0.098617919 0.15999997 10723483
0.692505 -0.10019886 0.15999997 11051935
0.69264138 -0.10207532 0.15899998 10394259
0.69291413 -0.10425512 0.15699995 10591638
0.69318688 -0.10644536 0.15499997 11117982
0.69359601 -0.10894942 0.15199995 11117982
0.69105786 -0.089406811 0.15899998 7171180
0.69119161 -0.091267593 0.15799993 9145221
0.69105786 -0.092573933 0.15899998 9868176
0.69092405 -0.093875058 0.15999997 10788765
0.69092405 -0.095456012 0.15999997 10854558
0.69092405 -0.097036965 0.15999997 10722970
0.6907903 -0.098327644 0.16099995 10591384
0.6907903 -0.099905975 0.16099995 10854040
0.69092405 -0.10177983 0.15999997 10591638
0.69132537 -0.10425512 0.15699995 10657431
0.69159287 -0.10644536 0.15499997 11052189
0.69199413 -0.10894942 0.15199995 11052189
0.68947428 -0.089406811 0.15899998 7762800
0.68947428 -0.090990357 0.15899998 6973021
0.68934315 -0.092294119 0.15999997 7630953
0.68934315 -0.093875058 0.15999997 10722970
0.68934315 -0.095456012 0.15999997 10854556
0.68934315 -0.097036965 0.15999997 10657177
0.68921196 -0.098327644 0.16099995 10657177
0.68921196 -0.099905975 0.16099995 10788763
0.68934315 -0.10177983 0.15999997 10460052
0.68960541 -0.103957 0.15799993 10723224
0.68999887 -0.10644536 0.15499997 10920603
0.69039232 -0.10894942 0.15199995 10920603
0.68750513 0.0059604496 0.16199994 2961455
0.68750513 0.0043847263 0.16199994 3027248
0.68750513 0.002809003 0.16199994 3949373
0.68750513 0.0012332723 0.16199994 4343108
0.68686247 -0.015327729 0.16699994 5527382
0.6877622 -0.089132212 0.15999997 8091504
0.6877622 -0.090713151 0.15999997 7630433
0.6877622 -0.092294119 0.15999997 6972249
0.6877622 -0.093875058 0.15999997 11578533
0.6877622 -0.095456012 0.15999997 10920603
0.6877622 -0.097036965 0.15999997 10657431
0.68763363 -0.098327644 0.16099995 10657431
0.68763363 -0.099905975 0.16099995 10657431
0.6877622 -0.10177983 0.15999997 10394005
0.68801928 -0.103957 0.15799993 10459798
0.68840486 -0.10644536 0.15499997 11183005
0.68879044 -0.10894942 0.15199995 11117982
0.6860553 0.050036088 0.16099995 8158583
0.6860553 0.037409391 0.16099995 6973282
0.68618125 0.035762895 0.15999997 6907489
0.68618125 0.029439088 0.15999997 6645093
0.68618125 0.027858138 0.15999997 7697781
0.68618125 0.026277192 0.15999997 7698034
0.68618125 0.024696242 0.15999997 8158585
0.6860553 0.023204353 0.16099995 7961976
0.68592942 0.018566243 0.16199994 3683634
0.68592942 0.0075361729 0.16199994 3290673
0.68592942 0.0059604496 0.16199994 5724761
0.6860553 0.0042643026 0.16099995 5987933
0.6860553 0.0026859641 0.16099995 5396566
0.6860553 0.0011076257 0.16099995 5659221
0.6860553 -0.00047071278 0.16099995 5855830
0.6860553 -0.0020490512 0.16099995 5855828
0.6860553 -0.0036273897 0.16099995 5855828
0.6860553 -0.0052057207 0.16099995 5921621
0.6860553 -0.0067840591 0.16099995 5790037
0.68592942 -0.0082210749 0.16199994 5659221
0.68580347 -0.0096528605 0.16299993 5725014
0.68580347 -0.011225969 0.16299993 5725014
0.68555164 -0.056401514 0.16499996 5330256
0.68555164 -0.057969399 0.16499996 4606533
0.68555164 -0.059537284 0.16499996 4474177
0.68567753 -0.061335348 0.16399997 4539460
0.68567753 -0.064476334 0.16399997 6117722
0.68567753 -0.066046841 0.16399997 6644319
0.68567753 -0.067617334 0.16399997 6973282
0.68567753 -0.069187827 0.16399997 6973282
0.68567753 -0.070758335 0.16399997 7237230
0.68580347 -0.072577305 0.16299993 7039851
0.68580347 -0.074150436 0.16299993 7105644
0.68580347 -0.075723536 0.16299993 6973801
0.68580347 -0.077296637 0.16299993 7237230
0.68580347 -0.078869753 0.16299993 7632758
0.68580347 -0.080442853 0.16299993 7501172
0.68592942 -0.082280122 0.16199994 8093309
0.68618125 -0.087551259 0.15999997 7499367
0.68618125 -0.089132212 0.15999997 8025711
0.68618125 -0.090713151 0.15999997 11973541
0.68618125 -0.092294119 0.15999997 9012602
0.68618125 -0.093875058 0.15999997 9867915
0.68618125 -0.095456012 0.15999997 10789017
0.6860553 -0.096749298 0.16099995 10657431
0.6860553 -0.098327644 0.16099995 10854040
0.6860553 -0.099905975 0.16099995 10723224
0.68618125 -0.10177983 0.15999997 10394005
0.68643308 -0.103957 0.15799993 10657177
0.68681085 -0.10644536 0.15499997 11446177
0.68718857 -0.10894942 0.15199995 11380384
0.68447697 0.050036088 0.16099995 8027767
0.68447697 0.037409391 0.16099995 6907489
0.68460029 0.035762895 0.15999997 6775903
0.68460029 0.034181941 0.15999997 6711139
0.68460029 0.032600991 0.15999997 6316379
0.68460029 0.031020042 0.15999997 4145982
0.68460029 0.029439088 0.15999997 8619653
0.68460029 0.027858138 0.15999997 8159102
0.68460029 0.026277192 0.15999997 8421755
0.68460029 0.024696242 0.15999997 9474445
0.68447697 0.023204353 0.16099995 8160125
0.68447697 0.021626014 0.16099995 9409422
0.68447697 0.02004768 0.16099995 9212043
0.68435365 0.018566243 0.16199994 9342857
0.68435365 0.01699052 0.16199994 9606029
0.68423039 0.015516926 0.16299993 9212041
0.68423039 0.013943814 0.16299993 10001557
0.68423039 0.012370698 0.16299993 9080455
0.68435365 0.010687619 0.16199994 9408904
0.68435365 0.0091118962 0.16199994 9079685
0.68435365 0.0075361729 0.16199994 8026997
0.68447697 0.005842641 0.16099995 6909286
0.68447697 0.0042643026 0.16099995 7106665
0.68410707 -0.061335348 0.16399997 7434603
0.68410707 -0.062905841 0.16399997 9210763
0.68410707 -0.064476334 0.16399997 9671314
0.68410707 -0.066046841 0.16399997 9276809
0.68410707 -0.067617334 0.16399997 9013635
0.68410707 -0.069187827 0.16399997 9210244
0.68410707 -0.070758335 0.16399997 9079687
0.68410707 -0.072328828 0.16399997 8948101
0.68410707 -0.073899336 0.16399997 9211016
0.68410707 -0.075469829 0.16399997 9144453
0.68410707 -0.077040322 0.16399997 9013894
0.68423039 -0.078869753 0.16299993 8948871
0.68423039 -0.080442853 0.16299993 8948871
0.68423039 -0.082015984 0.16299993 9212043
0.68423039 -0.083589084 0.16299993 8749695
0.68435365 -0.085431568 0.16199994 4209465
0.68447697 -0.087279268 0.16099995 7630701
0.68447697 -0.088857614 0.16099995 7828080
0.68460029 -0.090713151 0.15999997 8420215
0.68460029 -0.092294119 0.15999997 8025711
0.68447697 -0.093592621 0.16099995 7367527
0.68447697 -0.095170967 0.16099995 10591638
0.68447697 -0.096749298 0.16099995 10657431
0.68447697 -0.098327644 0.16099995 10460052
0.68447697 -0.099905975 0.16099995 10460052
0.68460029 -0.10177983 0.15999997 10394005
0.68484688 -0.103957 0.15799993 10657177
0.68521678 -0.10644536 0.15499997 11117728
0.68558675 -0.10894942 0.15199995 11052189
0.68277794 0.050080732 0.16199994 8027767
0.68289864 0.037409391 0.16099995 7961206
0.68301934 0.035762895 0.15999997 7896183
0.68301934 0.034181941 0.15999997 7830390
0.68301934 0.032600991 0.15999997 7567216
0.68301934 0.031020042 0.15999997 7436400
0.68301934 0.029439088 0.15999997 8226431
0.68301934 0.027858138 0.15999997 8160638
0.68301934 0.026277192 0.15999997 8686469
0.68301934 0.024696242 0.15999997 8752262
0.68301934 0.023115288 0.15999997 8817285
0.68289864 0.021626014 0.16099995 9080457
0.68289864 0.02004768 0.16099995 9014664
0.68277794 0.018566243 0.16199994 9145478
0.68277794 0.01699052 0.16199994 9145732
0.68277794 0.015414793 0.16199994 9211525
0.68265724 0.013943814 0.16299993 9540490
0.68277794 0.012263343 0.16199994 9474697
0.68277794 0.010687619 0.16199994 9014916
0.68289864 0.0089993104 0.16099995 8356732
0.68289864 0.0074209794 0.16099995 8159355
0.68289864 0.005842641 0.16099995 7698804
0.68301934 0.0041438788 0.15999997 7501425
0.68301934 0.0025629327 0.15999997 7896181
0.68265724 -0.05841931 0.16299993 7368812
0.68265724 -0.05999241 0.16299993 8487291
0.68253654 -0.061335348 0.16399997 8553084
0.68253654 -0.062905841 0.16399997 9079428
0.68253654 -0.064476334 0.16399997 9211014
0.68253654 -0.066046841 0.16399997 9276807
0.68253654 -0.067617334 0.16399997 9276807
0.68253654 -0.069187827 0.16399997 9407623
0.68253654 -0.070758335 0.16399997 9211014
0.68253654 -0.072328828 0.16399997 9145221
0.68253654 -0.073899336 0.16399997 9276807
0.68253654 -0.075469829 0.16399997 9341830
0.68253654 -0.077040322 0.16399997 9341830
0.68253654 -0.07861083 0.16399997 9408393
0.68253654 -0.080181308 0.16399997 9539979
0.68265724 -0.082015984 0.16299993 9211014
0.68265724 -0.083589084 0.16299993 9145221
0.68265724 -0.0851622 0.16299993 9868174
0.68277794 -0.087007292 0.16199994 10790303
0.68289864 -0.088857614 0.16099995 10395545
0.68289864 -0.090435944 0.16099995 9012606
0.68289864 -0.09201429 0.16099995 7498084
0.68289864 -0.093592621 0.16099995 9801868
0.68289864 -0.095170967 0.16099995 10657690
0.68289864 -0.096749298 0.16099995 10723483
0.68289864 -0.098327644 0.16099995 10394772
0.68289864 -0.099905975 0.16099995 10394005
0.68301934 -0.10177983 0.15999997 10394005
0.68326074 -0.103957 0.15799993 10591384
0.68362278 -0.10644536 0.15499997 10854556
0.68398488 -0.10894942 0.15199995 10789017
0.68120223 0.050080732 0.16199994 8158583
0.68132031 0.037409391 0.16099995 8224378
0.68143839 0.035762895 0.15999997 7829620
0.68143839 0.034181941 0.15999997 7763827
0.68143839 0.032600991 0.15999997 7698804
0.68143839 0.031020042 0.15999997 8489088
0.68143839 0.029439088 0.15999997 8686469
0.68143839 0.027858138 0.15999997 8489090
0.68143839 0.026277192 0.15999997 8949641
0.68143839 0.024696242 0.15999997 9541778
0.68143839 0.023115288 0.15999997 9541778
0.68132031 0.021626014 0.16099995 9212813
0.68132031 0.02004768 0.16099995 9147020
0.68132031 0.018469341 0.16099995 9475213
0.68120223 0.01699052 0.16199994 9212295
0.68120223 0.015414793 0.16199994 9278088
0.68120223 0.013839066 0.16199994 10329752
0.68120223 0.012263343 0.16199994 9934994
0.68132031 0.010577649 0.16099995 9803408
0.68132031 0.0089993104 0.16099995 8817283
0.68132031 0.0074209794 0.16099995 8751492
0.68143839 0.0057248324 0.15999997 8028286
0.68143839 0.0041438788 0.15999997 8028286
0.68143839 0.0025629327 0.15999997 8423297
0.68143839 0.00098197907 0.15999997 8092790
0.68108416 -0.055273093 0.16299993 8619131
0.68120223 -0.057068519 0.16199994 8750717
0.68108416 -0.05841931 0.16299993 8619131
0.68108416 -0.05999241 0.16299993 9013889
0.68108416 -0.061565526 0.16299993 8684670
0.68108416 -0.063138641 0.16299993 9145221
0.68096608 -0.064476334 0.16399997 9276807
0.68096608 -0.066046841 0.16399997 9408393
0.68096608 -0.067617334 0.16399997 9539979
0.68096608 -0.069187827 0.16399997 9474186
0.68096608 -0.070758335 0.16399997 9408393
0.68096608 -0.072328828 0.16399997 9408393
0.680848 -0.073648266 0.16499996 9539979
0.680848 -0.075216137 0.16499996 9670795
0.680848 -0.076784007 0.16499996 9670795
0.680848 -0.078351907 0.16499996 9539979
0.68096608 -0.080181308 0.16399997 9605772
0.68096608 -0.081751816 0.16399997 9474186
0.68096608 -0.083322309 0.16399997 9671565
0.68108416 -0.0851622 0.16299993 11184034
0.68108416 -0.086735301 0.16299993 10658460
0.68120223 -0.088583015 0.16199994 9145221
0.68120223 -0.090158738 0.16199994 8024941
0.68132031 -0.09201429 0.16099995 6840413
0.68132031 -0.093592621 0.16099995 10065042
0.68132031 -0.095170967 0.16099995 10591384
0.68132031 -0.096749298 0.16099995 10722970
0.68132031 -0.098327644 0.16099995 10460052
0.68132031 -0.099905975 0.16099995 10394772
0.68143839 -0.10177983 0.15999997 10328725
0.68167454 -0.103957 0.15799993 10526104
0.68191069 -0.10614464 0.15599996 10788763
0.68226492 -0.10864607 0.15299994 11380900
0.67962646 0.050080732 0.16199994 8093044
0.67962646 0.037474938 0.16199994 8290171
0.67974198 0.035831053 0.16099995 8554113
0.67985743 0.034181941 0.15999997 8488320
0.67985743 0.032600991 0.15999997 8093562
0.67985743 0.031020042 0.15999997 8356734
0.67985743 0.029439088 0.15999997 9935766
0.67985743 0.027858138 0.15999997 8948871
0.67985743 0.026277192 0.15999997 8883078
0.67985743 0.024696242 0.15999997 8751492
0.67974198 0.023204353 0.16099995 8948101
0.67974198 0.021626014 0.16099995 9013894
0.67974198 0.02004768 0.16099995 9145480
0.67962646 0.018566243 0.16199994 9408652
0.67962646 0.01699052 0.16199994 9145478
0.67962646 0.015414793 0.16199994 9145478
0.67962646 0.013839066 0.16199994 9277836
0.67962646 0.012263343 0.16199994 9080457
0.67962646 0.010687619 0.16199994 9014664
0.67974198 0.0089993104 0.16099995 9014664
0.67974198 0.0074209794 0.16099995 8751492
0.67985743 0.0057248324 0.15999997 8356734
0.67985743 0.0041438788 0.15999997 8027769
0.67985743 0.0025629327 0.15999997 7830390
0.67985743 0.00098197907 0.15999997 8027769
0.67985743 -0.00059897453 0.15999997 7830390
0.67985743 -0.0021799207 0.15999997 8093562
0.67997289 -0.0038943589 0.15899998 7698804
0.67951101 -0.055273093 0.16299993 8749947
0.67951101 -0.056846194 0.16299993 8947326
0.67951101 -0.05841931 0.16299993 8750717
0.67951101 -0.05999241 0.16299993 9079682
0.67951101 -0.061565526 0.16299993 9145221
0.67939556 -0.062905841 0.16399997 9276807
0.67939556 -0.064476334 0.16399997 9211014
0.67939556 -0.066046841 0.16399997 9276807
0.67939556 -0.067617334 0.16399997 9539981
0.67939556 -0.069187827 0.16399997 9474188
0.67939556 -0.070758335 0.16399997 9408395
0.67939556 -0.072328828 0.16399997 9474188
0.6792801 -0.073648266 0.16499996 9736590
0.6792801 -0.075216137 0.16499996 9736588
0.6792801 -0.076784007 0.16499996 9736588
0.67916465 -0.078092985 0.16599995 9539979
0.6792801 -0.079919778 0.16499996 9605772
0.6792801 -0.081487678 0.16499996 9737360
0.67939556 -0.083322309 0.16399997 10000532
0.67939556 -0.084892817 0.16399997 9736588
0.67939556 -0.08646331 0.16399997 9539211
0.67951101 -0.088308431 0.16299993 9341832
0.67951101 -0.089881532 0.16299993 9737360
0.67962646 -0.091734476 0.16199994 10131348
0.67974198 -0.093592621 0.16099995 10787993
0.67974198 -0.095170967 0.16099995 10590614
0.67974198 -0.096749298 0.16099995 10722200
0.67974198 -0.098327644 0.16099995 10722200
0.67974198 -0.099905975 0.16099995 10591897
0.67985743 -0.10177983 0.15999997 10262932
0.67997289 -0.10365888 0.15899998 10328725
0.68020386 -0.10584392 0.15699995 10657690
0.68055022 -0.10834271 0.15399998 10723737
0.67805076 0.050080732 0.16199994 8093044
0.67793792 0.040686708 0.16299993 8948099
0.67793792 0.039113596 0.16299993 8882306
0.67793792 0.037540484 0.16299993 8421755
0.67805076 0.035899211 0.16199994 8619906
0.67816365 0.034252714 0.16099995 8619906
0.67816365 0.032674376 0.16099995 8554113
0.67827648 0.031020042 0.15999997 8948869
0.67827648 0.029439088 0.15999997 9474443
0.67827648 0.027858138 0.15999997 9277834
0.67827648 0.026277192 0.15999997 9343629
0.67827648 0.024696242 0.15999997 9080457
0.67816365 0.023204353 0.16099995 9212043
0.67816365 0.021626014 0.16099995 9343629
0.67816365 0.02004768 0.16099995 9409422
0.67805076 0.018566243 0.16199994 9541008
