# .PCD v0.7 - Point Cloud Data file format
VERSION 0.7
FIELDS x y z rgb
SIZE 4 4 4 4
TYPE F F F U
COUNT 1 1 1 1
WIDTH 256
HEIGHT 1
VIEWPOINT 0 0 0 1 0 0 0
POINTS 256
DATA ascii
0.70571446 0.058401428 0.17599994 4935245
0.70555198 0.056896478 0.17699999 5198668
0.70417535 0.058401428 0.17599994 5132877
0.70417535 0.056862287 0.17599994 5198668
0.70263624 0.056862287 0.17599994 5330254
0.70109707 0.056862287 0.17599994 5330254
0.69971001 0.058369853 0.17499995 5725014
0.6995579 0.056862287 0.17599994 6053979
0.6995579 0.055323146 0.17599994 5395277
0.69816822 0.058369853 0.17499995 7039851
0.69816822 0.056828097 0.17499995 7171437
0.69801879 0.055323146 0.17599994 5855830
0.69786936 0.053823423 0.17699999 5329229
0.69712216 -0.087661408 0.18199998 9606024
0.69712216 -0.089184888 0.18199998 9540490
0.69712216 -0.090708338 0.18199998 9934994
0.69727159 -0.092522092 0.18099993 10000787
0.69727159 -0.094048165 0.18099993 10461338
0.69727159 -0.095574252 0.18099993 10198166
0.69742101 -0.097398423 0.17999995 10987431
0.69742101 -0.098927133 0.17999995 10855845
0.69742101 -0.1004558 0.17999995 11381932
0.69742101 -0.10198451 0.17999995 10592416
0.69757044 -0.10382175 0.17899996 10461083
0.69757044 -0.10535306 0.17899996 10526874
0.69647968 0.055323146 0.17599994 6251356
0.6960392 -0.056351416 0.17899996 6777449
0.6960392 -0.057882719 0.17899996 6645863
0.6960392 -0.059414022 0.17899996 7171433
0.69589233 -0.060709916 0.17999995 6907489
0.69589233 -0.062238611 0.17999995 6907489
0.69589233 -0.063767292 0.17999995 6841948
0.69589233 -0.065295987 0.17999995 6644056
0.69589233 -0.066824667 0.17999995 6644056
0.69574553 -0.0681049 0.18099993 6446679
0.69574553 -0.069630988 0.18099993 6512472
0.69574553 -0.071157046 0.18099993 6249046
0.69574553 -0.072683118 0.18099993 6512731
0.69589233 -0.074468113 0.17999995 6578526
0.69589233 -0.075996794 0.17999995 6380894
0.69589233 -0.077525489 0.17999995 6315101
0.69589233 -0.079054169 0.17999995 6644836
0.69589233 -0.080582865 0.17999995 6645093
0.69589233 -0.082111545 0.17999995 6645346
0.69589233 -0.08364024 0.17999995 6513501
0.69574553 -0.084891714 0.18099993 6447708
0.69559872 -0.086137958 0.18199998 6775903
0.69559872 -0.087661408 0.18199998 6776157
0.69559872 -0.089184888 0.18199998 6644056
0.69559872 -0.090708338 0.18199998 6907228
0.69574553 -0.092522092 0.18099993 6973021
0.69574553 -0.094048165 0.18099993 6907228
0.69574553 -0.095574252 0.18099993 7038044
0.69589233 -0.097398423 0.17999995 7103839
0.69589233 -0.098927133 0.17999995 7038046
0.69589233 -0.1004558 0.17999995 6972769
0.6960392 -0.10229046 0.17899996 6644317
0.6960392 -0.10382175 0.17899996 6842725
0.69494051 0.055323146 0.17599994 7171690
0.69479626 0.053823423 0.17699999 5395022
0.69479626 0.052286893 0.17699999 6710880
0.69465208 0.050795011 0.17799997 6776932
0.69465208 0.049261097 0.17799997 6842725
0.69450784 0.047777049 0.17899996 6776932
0.69450784 0.046245746 0.17899996 6645089
0.69436365 0.04476954 0.17999995 6710882
0.69436365 0.043240853 0.17999995 6776675
0.69436365 0.041712169 0.17999995 6513503
0.69436365 0.040183477 0.17999995 6250588
0.69436365 0.038654789 0.17999995 5987416
0.69436365 0.037126102 0.17999995 6184536
0.69436365 0.035597414 0.17999995 6184536
0.69450784 0.033995342 0.17899996 6184790
0.69450784 0.032464039 0.17899996 6053204
0.69465208 0.030854125 0.17799997 7764079
0.69465208 0.02932021 0.17799997 7369321
0.69465208 0.0277863 0.17799997 7303528
0.69479626 0.026165936 0.17699999 7303528
0.69465208 0.024718471 0.17799997 7303271
0.69465208 0.023184557 0.17799997 7303271
0.69465208 0.021650642 0.17799997 6842723
0.69450784 0.02021363 0.17899996 6842723
0.69450784 0.018682331 0.17899996 6776932
0.69450784 0.017151028 0.17899996 6250588
0.69450784 0.015619729 0.17899996 6447965
0.69450784 0.01408843 0.17899996 6185563
0.69450784 0.012557127 0.17899996 5856598
0.69450784 0.011025824 0.17899996 6119772
0.69450784 0.0094945282 0.17899996 6184795
0.69465208 0.0078454167 0.17799997 6184536
0.69465208 0.0063114986 0.17799997 6250329
0.69465208 0.004777588 0.17799997 6316122
0.69450784 0.0033693239 0.17899996 6250329
0.69465208 0.0017097592 0.17799997 6183507
0.69465208 0.00017584115 0.17799997 6512472
0.69465208 -0.0013580695 0.17799997 6512472
0.69465208 -0.0028919876 0.17799997 6446679
0.69465208 -0.0044258982 0.17799997 6446425
0.69479626 -0.0061011389 0.17699999 6183768
0.69508469 -0.0079255551 0.17499995 6052952
0.69537312 -0.009760417 0.17299998 6184538
0.69580579 -0.0117549 0.16999996 5987416
0.6962384 -0.013765067 0.16699994 6184538
0.69667101 -0.015790902 0.16399997 5987159
0.69681525 -0.017518416 0.16299993 5987159
0.69710368 -0.019410767 0.16099995 5987159
0.69739211 -0.021313556 0.15899998 5921366
0.69753629 -0.023061976 0.15799993 6052952
0.69753629 -0.024648152 0.15799993 6052699
0.69753629 -0.026234329 0.15799993 5986906
0.69739211 -0.027647816 0.15899998 5921366
0.69710368 -0.028880782 0.16099995 5921366
0.69681525 -0.030103303 0.16299993 5987157
0.69667101 -0.031495877 0.16399997 6249046
0.6962384 -0.032516971 0.16699994 6249046
0.69580579 -0.033522367 0.16999996 6249046
0.69551736 -0.034700461 0.17199993 6117460
0.69522893 -0.035868093 0.17399997 6117460
0.69508469 -0.037218869 0.17499995 6117460
0.69494051 -0.038564421 0.17599994 6117460
0.69494051 -0.040103562 0.17599994 6117460
0.69494051 -0.041642703 0.17599994 6117460
0.69494051 -0.043181844 0.17599994 6117460
0.69479626 -0.044514321 0.17699999 6183253
0.69465208 -0.045841582 0.17799997 6052182
0.69465208 -0.047375493 0.17799997 6052182
0.69465208 -0.048909403 0.17799997 6117975
0.69465208 -0.050443329 0.17799997 6183768
0.69465208 -0.05197724 0.17799997 6183515
0.69465208 -0.05351115 0.17799997 6315101
0.69450784 -0.054820113 0.17899996 6183515
0.69450784 -0.056351416 0.17899996 6183515
0.69450784 -0.057882719 0.17899996 6250080
0.69450784 -0.059414022 0.17899996 6512480
0.69436365 -0.060709916 0.17999995 6446687
0.69436365 -0.062238611 0.17999995 6446687
0.69436365 -0.063767292 0.17999995 6512733
0.69436365 -0.065295987 0.17999995 6512985
0.69436365 -0.066824667 0.17999995 6512985
0.69436365 -0.068353362 0.17999995 6447192
0.69436365 -0.069882058 0.17999995 6644058
0.69421947 -0.071157046 0.18099993 6578011
0.69421947 -0.072683118 0.18099993 6578524
0.69436365 -0.074468113 0.17999995 6644319
0.69436365 -0.075996794 0.17999995 6578273
0.69436365 -0.077525489 0.17999995 6578273
0.69436365 -0.079054169 0.17999995 6513250
0.69436365 -0.080582865 0.17999995 6513250
0.69436365 -0.082111545 0.17999995 6513250
0.69436365 -0.08364024 0.17999995 6447710
0.69421947 -0.084891714 0.18099993 6447710
0.69421947 -0.086417802 0.18099993 6578526
0.69407523 -0.087661408 0.18199998 6644319
0.69407523 -0.089184888 0.18199998 6643804
0.69407523 -0.090708338 0.18199998 6709851
0.69421947 -0.092522092 0.18099993 6644058
0.69421947 -0.094048165 0.18099993 6709851
0.69421947 -0.095574252 0.18099993 6840667
0.69436365 -0.097398423 0.17999995 6709597
0.69436365 -0.098927133 0.17999995 6709597
0.69450784 -0.10075914 0.17899996 6446938
0.69325978 0.053823423 0.17699999 5855573
0.69325978 0.052286893 0.17699999 5987157
0.69311816 0.050795011 0.17799997 5921623
0.69311816 0.049261097 0.17799997 6184795
0.69297659 0.047777049 0.17899996 6119002
0.69283497 0.043240853 0.17999995 6052952
0.69283497 0.041712169 0.17999995 6052952
0.69283497 0.040183477 0.17999995 6052952
0.69283497 0.038654789 0.17999995 5987159
0.69283497 0.037126102 0.17999995 5987159
0.69297659 0.033995342 0.17899996 5921364
0.69325978 0.029238984 0.17699999 5855825
0.69340134 0.02607948 0.17599994 5921618
0.69340134 0.024540339 0.17599994 6052434
0.69340134 0.023001198 0.17599994 5986641
0.69325978 0.021556351 0.17699999 6052180
0.69325978 0.020019826 0.17699999 6052180
0.69311816 0.013981067 0.17799997 5658449
0.69552535 -0.01625409 0.16099995 5854803
0.69595015 -0.018303454 0.15799993 5723217
0.69609171 -0.020049252 0.15699995 5459532
0.69637489 -0.021962494 0.15499997 5591631
0.69651651 -0.023721352 0.15399998 5921366
0.69651651 -0.025317982 0.15399998 5855573
0.69651651 -0.026914611 0.15399998 5592401
0.69637489 -0.028338559 0.15499997 5656911
0.69609171 -0.029581986 0.15699995 6184538
0.69595015 -0.030992866 0.15799993 6382174
0.69552535 -0.032037459 0.16099995 6117973
0.69510055 -0.033066377 0.16399997 6117973
0.69467574 -0.034079626 0.16699994 6117460
0.69425094 -0.035077192 0.16999996 6051667
0.69396776 -0.036250055 0.17199993 6051667
0.69368458 -0.037412457 0.17399997 5985874
0.69354296 -0.038760625 0.17499995 6051667
0.69354296 -0.040302381 0.17499995 6117460
0.69340134 -0.041642703 0.17599994 5985874
0.69340134 -0.043181844 0.17599994 6051667
0.69340134 -0.044720985 0.17599994 6052180
0.69325978 -0.046050847 0.17699999 5986387
0.69325978 -0.047587372 0.17699999 5920594
0.69325978 -0.049123906 0.17699999 5986387
0.69325978 -0.050660424 0.17699999 5723985
0.69325978 -0.052196957 0.17699999 5987159
0.69325978 -0.053733476 0.17699999 6250331
0.69311816 -0.055045061 0.17799997 6052952
0.69311816 -0.056578971 0.17799997 6184538
0.69311816 -0.058112882 0.17799997 6710629
0.69297659 -0.059414022 0.17899996 6710629
0.69297659 -0.060945325 0.17899996 6973801
0.69297659 -0.062476613 0.17899996 7236973
0.69297659 -0.064007916 0.17899996 7434352
0.69297659 -0.065539218 0.17899996 7500655
0.69283497 -0.066824667 0.17999995 7567216
0.69283497 -0.068353362 0.17999995 7566446
0.69255179 -0.089184888 0.18199998 8291458
0.69255179 -0.090708338 0.18199998 8751492
0.69269335 -0.092522092 0.18099993 8817285
0.69269335 -0.094048165 0.18099993 8948871
0.69283497 -0.095869742 0.17999995 9212813
0.69283497 -0.097398423 0.17999995 9278866
0.69283497 -0.098927133 0.17999995 9344659
0.69297659 -0.10075914 0.17899996 9541525
0.69464195 -0.017026059 0.15599996 8750465
0.69505888 -0.019088492 0.15299994 7566191
0.69533682 -0.021006972 0.15099996 4472637
0.69547582 -0.022773661 0.14999998 4143932
0.69547582 -0.024380744 0.14999998 8421757
0.69547582 -0.025987826 0.14999998 8355707
0.69547582 -0.027594909 0.14999998 5263436
0.69547582 -0.029201992 0.14999998 5394252
0.69519788 -0.03045848 0.15199995 9474445
0.69400513 -0.019716516 0.14899993 7763827
0.69427788 -0.021645449 0.14699996 4208695
0.69427788 -0.023260362 0.14699996 4077879
0.69441426 -0.025040135 0.14599997 7303269
0.69441426 -0.026657663 0.14599997 6314323
0.69441426 -0.028275199 0.14599997 5459014
0.69427788 -0.029720053 0.14699996 5460562
0.69293046 -0.021964692 0.14499998 4012086
0.69306421 -0.023747072 0.14399993 4340281
0.69306421 -0.02536983 0.14399993 5723467
0.69306421 -0.026992589 0.14399993 5591881
0.69306421 -0.028615355 0.14399993 4866110
0.69293046 -0.030065417 0.14499998 9210763
0.69157261 -0.022283934 0.14299995 3617841
0.69157261 -0.023909301 0.14299995 3814707
0.69157261 -0.025534675 0.14299995 8749693
0.69157261 -0.027160048 0.14299995 7236454
0.69157261 -0.028785422 0.14299995 3813937
0.69007576 -0.022443555 0.14199996 4144955
0.69007576 -0.02407153 0.14199996 4077626
0.69007576 -0.025699519 0.14199996 9539211
0.69007576 -0.027327508 0.14199996 6907489
0.69007576 -0.028955497 0.14199996 3879730
