# .PCD v0.7 - Point Cloud Data file format
VERSION 0.7
FIELDS x y z rgb
SIZE 4 4 4 4
TYPE F F F U
COUNT 1 1 1 1
WIDTH 163
HEIGHT 1
VIEWPOINT 0 0 0 1 0 0 0
POINTS 163
DATA ascii
0.79219651 -0.11951763 0.14899993 5391420
0.79117316 -0.12015565 0.14699996 5128248
0.78955823 -0.12015565 0.14699996 5128250
0.78823125 -0.12047467 0.14599997 5063229
0.7866137 -0.12047467 0.14599997 4997436
0.78301722 -0.11664229 0.15299994 5062975
0.78499615 -0.12047467 0.14599997 4931389
0.78141797 -0.11664229 0.15299994 5062975
0.78337866 -0.12047467 0.14599997 4997182
0.78009623 -0.11695869 0.15199995 4931903
0.78176111 -0.12047467 0.14599997 4931903
0.77849436 -0.11695869 0.15199995 5260870
0.78014356 -0.12047467 0.14599997 5129284
0.77689248 -0.11695869 0.15199995 5261130
0.77852607 -0.12047467 0.14599997 5129544
0.77529067 -0.11695869 0.15199995 5459530
0.77690852 -0.12047467 0.14599997 5196358
0.77342176 -0.11664229 0.15299994 5459784
0.77502394 -0.12015565 0.14699996 5262151
0.77208698 -0.11695869 0.15199995 5525577
0.77367342 -0.12047467 0.14599997 5328198
0.7704851 -0.11695869 0.15199995 5460297
0.77205592 -0.12047467 0.14599997 5197125
0.76888323 -0.11695869 0.15199995 5526090
0.77043837 -0.12047467 0.14599997 5262918
0.76728141 -0.11695869 0.15199995 5460043
0.76856428 -0.12015565 0.14699996 5262664
0.76567954 -0.11695869 0.15199995 5460043
0.76694936 -0.12015565 0.14699996 5262664
0.76821917 -0.12337875 0.14199996 4867906
0.76382631 -0.11664229 0.15299994 5460043
0.76533443 -0.12015565 0.14699996 5262664
0.76659119 -0.12337875 0.14199996 4867906
0.76197833 -0.11632586 0.15399998 5525836
0.76347077 -0.11983664 0.14799994 5262664
0.76471448 -0.12305712 0.14299995 4737090
0.7603817 -0.11632586 0.15399998 5525836
0.76185846 -0.11983664 0.14799994 5262664
0.76308906 -0.12305712 0.14299995 4737090
0.75878507 -0.11632586 0.15399998 5525325
0.76024616 -0.11983664 0.14799994 5262153
0.7614637 -0.12305712 0.14299995 4737092
0.75718844 -0.11632586 0.15399998 5459532
0.75863385 -0.11983664 0.14799994 5130567
0.75959742 -0.12273549 0.14399993 4605506
0.75559181 -0.11632586 0.15399998 5326923
0.75678325 -0.11951763 0.14899993 5063751
0.75797468 -0.12273549 0.14399993 4670529
0.75399518 -0.11632586 0.15399998 5261130
0.75517356 -0.11951763 0.14899993 4800579
0.75635189 -0.12273549 0.14399993 4407357
0.7521655 -0.11600945 0.15499997 5326923
0.75356388 -0.11951763 0.14899993 4734786
0.75472915 -0.12273549 0.14399993 4275771
0.75057149 -0.11600945 0.15499997 4801349
0.7519542 -0.11951763 0.14899993 4472384
0.75310636 -0.12273549 0.14399993 4275771
0.74897748 -0.11600945 0.15499997 4801349
0.75034446 -0.11951763 0.14899993 4472384
0.75148362 -0.12273549 0.14399993 4144955
0.74738348 -0.11600945 0.15499997 4735809
0.74850953 -0.11919858 0.14999998 4472637
0.74986088 -0.12273549 0.14399993 4079162
0.74578941 -0.11600945 0.15499997 4735809
0.74712509 -0.11951763 0.14899993 4472637
0.74823809 -0.12273549 0.14399993 4013369
0.7441954 -0.11600945 0.15499997 4604221
0.74551535 -0.11951763 0.14899993 4472635
0.74661535 -0.12273549 0.14399993 4013116
0.74260139 -0.11600945 0.15499997 4669244
0.74390566 -0.11951763 0.14899993 4603451
0.74499261 -0.12273549 0.14399993 4013116
0.74100739 -0.11600945 0.15499997 4866623
0.74229598 -0.11951763 0.14899993 4669244
0.74336982 -0.12273549 0.14399993 4079162
0.73941338 -0.11600945 0.15499997 5129797
0.7406863 -0.11951763 0.14899993 4932418
0.74174702 -0.12273549 0.14399993 4736322
0.73907661 -0.11951763 0.14899993 5129797
0.74012429 -0.12273549 0.14399993 4998981
0.73622537 -0.11600945 0.15499997 5327174
0.73746693 -0.11951763 0.14899993 5261381
0.73850155 -0.12273549 0.14399993 5064772
0.7346313 -0.11600945 0.15499997 5458760
0.73585719 -0.11951763 0.14899993 5327174
0.73687875 -0.12273549 0.14399993 4999233
0.73283559 -0.11569306 0.15599996 5392967
0.7340458 -0.11919858 0.14999998 4999233
0.73525602 -0.12273549 0.14399993 4999233
0.73124421 -0.11569306 0.15599996 5261381
0.73243874 -0.11919858 0.14999998 4933186
0.73343414 -0.12241384 0.14499998 4933186
0.72945631 -0.11537664 0.15699995 5195329
0.73083162 -0.11919858 0.14999998 4801600
0.73161751 -0.12209221 0.14599997 4801600
0.72786754 -0.11537664 0.15699995 5392708
0.72883683 -0.11856055 0.15199995 4604988
0.73000002 -0.12209221 0.14599997 4539195
0.72704375 -0.11824154 0.15299994 4407609
0.7281912 -0.12177057 0.14699996 4407609
0.72525585 -0.11792249 0.15399998 4407355
0.72657633 -0.12177057 0.14699996 4275769
0.72751945 -0.12500674 0.14199996 4473148
0.72365922 -0.11792249 0.15399998 4209976
0.7249614 -0.12177057 0.14699996 4144183
0.72589147 -0.12500674 0.14199996 4275769
0.72297966 -0.12112731 0.14899993 4144183
0.72426349 -0.12500674 0.14199996 4275769
0.72136992 -0.12112731 0.14899993 4340281
0.72245473 -0.12468251 0.14299995 4209978
0.71851295 -0.11728445 0.15599996 4340281
0.71958208 -0.12080566 0.14999998 4340281
0.72065115 -0.12435826 0.14399993 4275258
0.71692157 -0.11728445 0.15599996 4209463
0.71797496 -0.12080566 0.14999998 4209463
0.71902841 -0.12435826 0.14399993 4209465
0.71515721 -0.11696545 0.15699995 4209463
0.71619493 -0.12048403 0.15099996 4143670
0.71705973 -0.12370975 0.14599997 4078392
0.71356845 -0.11696545 0.15699995 4209976
0.71459049 -0.12048403 0.15099996 4078390
0.71544218 -0.12370975 0.14599997 4144183
0.71114099 -0.1137946 0.16199994 7170402
0.71197963 -0.11696545 0.15699995 4209976
0.71298599 -0.12048403 0.15099996 4144183
0.71382463 -0.12370975 0.14599997 4144183
0.70956528 -0.1137946 0.16199994 7433574
0.71039087 -0.11696545 0.15699995 4144183
0.71138155 -0.12048403 0.15099996 4144183
0.71220714 -0.12370975 0.14599997 4144183
0.70782703 -0.11347819 0.16299993 7960431
0.70880204 -0.11696545 0.15699995 4078392
0.70961457 -0.12016241 0.15199995 4078392
0.71042711 -0.12338551 0.14699996 4013369
0.70641381 -0.1137946 0.16199994 8025709
0.70721328 -0.11696545 0.15699995 4013369
0.70817262 -0.12048403 0.15099996 3947576
0.70897204 -0.12370975 0.14599997 3947574
0.7048381 -0.1137946 0.16199994 7959916
0.70562446 -0.11696545 0.15699995 4079162
0.70656812 -0.12048403 0.15099996 3947576
0.70735455 -0.12370975 0.14599997 4013367
0.70310771 -0.11347819 0.16299993 4603701
0.7040357 -0.11696545 0.15699995 4144955
0.70480901 -0.12016241 0.15199995 4013369
0.70573699 -0.12370975 0.14599997 4144955
0.70153457 -0.11347819 0.16299993 4735287
0.70229483 -0.11664643 0.15799993 4144953
0.70320714 -0.12016241 0.15199995 4079160
0.70411944 -0.12370975 0.14599997 4276541
0.69966257 -0.11284537 0.16499996 4801080
0.70040977 -0.11600836 0.15999997 4407355
0.70145583 -0.11984076 0.15299994 4407355
0.70250189 -0.12370975 0.14599997 4473918
0.69794786 -0.11252896 0.16599995 4603701
0.69868201 -0.11568936 0.16099995 4538682
0.69970977 -0.11951912 0.15399998 4408379
0.7008844 -0.12370975 0.14599997 4408125
0.69609421 -0.11189613 0.16799998 4406324
0.69681525 -0.11505132 0.16299993 4604475
0.69869 -0.12080566 0.14999998 4670268
0.69495893 -0.11441327 0.16499996 5327428
0.69793248 -0.12273549 0.14399993 5590600
