# .PCD v0.7 - Point Cloud Data file format
VERSION 0.7
FIELDS x y z rgb
SIZE 4 4 4 4
TYPE F F F U
COUNT 1 1 1 1
WIDTH 334
HEIGHT 1
VIEWPOINT 0 0 0 1 0 0 0
POINTS 334
DATA ascii
0.75610644 0.076868705 0.16499996 4342338
0.75391483 0.073781937 0.17399997 4276547
0.75863385 0.080089599 0.14799994 4605504
0.75646573 0.078455746 0.15699995 4539968
0.75237048 0.073781937 0.17399997 3948352
0.75725979 0.080094606 0.14699996 4342589
0.75535351 0.078460529 0.15499997 4408382
0.7522558 0.075309314 0.16799998 3488052
0.75106442 0.073776498 0.17299998 3488571
0.75611621 0.080104627 0.14499998 4276796
0.75423086 0.07846532 0.15299994 4342589
0.75093144 0.075306483 0.16699994 3422259
0.74975312 0.073771052 0.17199993 3487801
0.75472915 0.080109634 0.14399993 4079417
0.75146633 0.076867171 0.15799993 3487280
0.74960184 0.075303651 0.16599995 3355694
0.74820352 0.073771052 0.17199993 3750201
0.75310636 0.080109634 0.14399993 3882808
0.74988019 0.076867171 0.15799993 3289901
0.74688435 0.073765606 0.17099994 3618615
0.75148362 0.080109634 0.14399993 3817015
0.74510431 0.073771052 0.17199993 3552822
0.75008607 0.08011464 0.14299995 3817015
0.74850953 0.078472503 0.14999998 3751222
0.74332952 0.073776498 0.17299998 3355443
0.74846071 0.08011464 0.14299995 3817015
0.74155992 0.073781937 0.17399997 3289650
0.74705529 0.080119647 0.14199996 4013878
0.74001557 0.073781937 0.17399997 3289903
0.74542737 0.080119647 0.14199996 4079671
0.73825383 0.073787384 0.17499995 3289903
0.74358457 0.08011464 0.14299995 4013878
0.73692679 0.073781937 0.17399997 3158315
0.74195921 0.08011464 0.14299995 4013878
0.73538244 0.073781937 0.17399997 3158060
0.74033386 0.08011464 0.14299995 3948085
0.73383808 0.073781937 0.17399997 3026731
0.73891538 0.080119647 0.14199996 3816499
0.73250067 0.073776498 0.17299998 2960938
0.7372874 0.080119647 0.14199996 3750706
0.73565286 0.078472503 0.14999998 3750706
0.73115802 0.073771052 0.17199993 2960936
0.73565942 0.080119647 0.14199996 3553327
0.7340458 0.078472503 0.14999998 3553327
0.72981012 0.073765606 0.17099994 3158567
0.73403144 0.080119647 0.14199996 3421741
0.73243874 0.078472503 0.14999998 3421741
0.72825789 0.073765606 0.17099994 2961188
0.73220694 0.08011464 0.14299995 3355948
0.73083162 0.078472503 0.14999998 3355948
0.72945631 0.076866955 0.15699995 3355948
0.73058158 0.08011464 0.14299995 3158567
0.72922456 0.078472503 0.14999998 3158567
0.72534734 0.073760159 0.16999996 2500639
0.72895622 0.08011464 0.14299995 3158567
0.7276175 0.078472503 0.14999998 3092774
0.72398376 0.073754713 0.16899997 2434846
0.72714221 0.080109634 0.14399993 3092774
0.72601038 0.078472503 0.14999998 3092774
0.72242635 0.073754713 0.16899997 2500637
0.72129452 0.072245635 0.17499995 4276541
0.72551942 0.080109634 0.14399993 3092774
0.72440332 0.078472503 0.14999998 3026981
0.72086889 0.073754713 0.16899997 2698016
0.71975279 0.072245635 0.17499995 3882038
0.72352988 0.080099612 0.14599997 3026981
0.72242939 0.078467719 0.15199995 3026981
0.71912807 0.073760159 0.16999996 2895395
0.718211 0.072245635 0.17499995 3882292
0.72173154 0.080094606 0.14699996 2961188
0.72046596 0.078462929 0.15399998 3026981
0.71757323 0.073760159 0.16999996 2961188
0.71666926 0.072245635 0.17499995 3816499
0.72065115 0.081732392 0.14399993 3026981
0.71976024 0.080084592 0.14899993 2961188
0.71869117 0.078460529 0.15499997 3026981
0.71762204 0.076867826 0.16099995 2961188
0.71584022 0.073765606 0.17099994 2961188
0.71494931 0.072253689 0.17599994 3750706
0.71937954 0.083375618 0.14199996 3026981
0.71885282 0.08172477 0.14499998 3026981
0.71779943 0.080074579 0.15099996 2961188
0.71674597 0.078455746 0.15699995 2961188
0.71499032 0.075306483 0.16699994 2961188
0.71411246 0.073771052 0.17199993 2961188
0.7134102 0.072253689 0.17599994 3553327
0.71775156 0.083375618 0.14199996 3026981
0.71705973 0.081717148 0.14599997 3026981
0.71602201 0.080069572 0.15199995 2895395
0.71515721 0.078455746 0.15699995 2961188
0.71325469 0.075309314 0.16799998 2961188
0.71256286 0.073771052 0.17199993 3026981
0.71187103 0.072253689 0.17599994 3487534
0.71595323 0.083365388 0.14299995 3026981
0.71527183 0.081709534 0.14699996 3026981
0.71442014 0.080069572 0.15199995 2961188
0.7133981 0.078453347 0.15799993 2895395
0.71169466 0.075309314 0.16799998 2961188
0.71101332 0.073771052 0.17199993 3026981
0.71016157 0.072261751 0.17699999 3355948
0.71432787 0.083365388 0.14299995 3026983
0.7136569 0.081709534 0.14699996 3026983
0.71265054 0.080064565 0.15299994 2961190
0.7118119 0.078453347 0.15799993 2961190
0.71080554 0.076868489 0.16399997 2895397
0.71013463 0.075309314 0.16799998 2961190
0.70929599 0.073776498 0.17299998 2961190
0.70862502 0.072261751 0.17699999 3290155
0.71270245 0.083365388 0.14299995 2961190
0.71204203 0.081709534 0.14699996 3026983
0.71105134 0.080064565 0.15299994 2961190
0.7102257 0.078453347 0.15799993 2961190
0.70940018 0.076868266 0.16299993 2895397
0.70857453 0.075309314 0.16799998 2961190
0.70774901 0.073776498 0.17299998 2961190
0.70708853 0.072261751 0.17699999 3290155
0.71123958 0.083375618 0.14199996 2895395
0.71042711 0.081709534 0.14699996 2961190
0.70945209 0.080064565 0.15299994 2961190
0.70880204 0.078455746 0.15699995 2895397
0.7070145 0.075309314 0.16799998 2895397
0.70636451 0.073771052 0.17199993 2961190
0.70571446 0.072253689 0.17599994 3092776
0.70961159 0.083375618 0.14199996 2895395
0.70897204 0.081717148 0.14599997 2961190
0.7080127 0.080069572 0.15199995 2895397
0.70721328 0.078455746 0.15699995 2895397
0.70561439 0.075306483 0.16699994 2895397
0.70481491 0.073771052 0.17199993 2961190
0.70417535 0.072253689 0.17599994 3355691
0.70798361 0.083375618 0.14199996 2895395
0.70735455 0.081717148 0.14599997 2895397
0.70672542 0.080079585 0.14999998 2895397
0.70593905 0.078460529 0.15499997 2829604
0.70405173 0.075306483 0.16699994 2895397
0.70342261 0.073765606 0.17099994 2895397
0.70279348 0.072245635 0.17499995 3092265
0.70604634 0.081732392 0.14399993 2829604
0.70527297 0.080084592 0.14899993 2895397
0.70449966 0.078462929 0.15399998 2829604
0.70279837 0.07530082 0.16499996 2895397
0.70202506 0.073760159 0.16999996 2961190
0.70140642 0.072237574 0.17399997 2960936
0.70472765 0.081747636 0.14199996 2829604
0.70396739 0.080094606 0.14699996 2895397
0.70335919 0.078470111 0.15099996 2829604
0.70244688 0.076866955 0.15699995 2895397
0.70153457 0.075295158 0.16299993 2895397
0.70077431 0.073749267 0.16799998 2895397
0.70016611 0.072221458 0.17199993 2895143
0.70309967 0.081747636 0.14199996 2829604
0.70250189 0.080099612 0.14599997 2895397
0.70190418 0.078472503 0.14999998 2895397
0.70100754 0.076866738 0.15599996 2895397
0.69936371 0.073743828 0.16699994 2895397
0.69861656 0.072221458 0.17199993 1579537
0.70103121 0.080104627 0.14499998 2895397
0.70044392 0.078474902 0.14899993 2895397
0.69956297 0.076866515 0.15499997 2895397
0.69868201 0.075289495 0.16099995 2961190
0.69780105 0.073743828 0.16699994 2895397
0.69721377 0.072213396 0.17099994 1316111
0.69955528 0.080109634 0.14399993 2961188
0.69883424 0.078474902 0.14899993 2895395
0.69796896 0.076866515 0.15499997 2895395
0.69724786 0.075286657 0.15999997 2895395
0.69638264 0.073738381 0.16599995 2698016
0.69580579 0.072205342 0.16999996 1250063
0.6980741 0.08011464 0.14299995 2895395
0.69736612 0.078477293 0.14799994 2961188
0.69651651 0.076866299 0.15399998 2895395
0.69566691 0.075286657 0.15999997 2895395
0.69481736 0.073738381 0.16599995 2632223
0.69425094 0.072205342 0.16999996 1184017
0.69658768 0.080119647 0.14199996 2895395
0.69589281 0.078479685 0.14699996 2961188
0.69491988 0.076866299 0.15399998 2961188
0.69325209 0.073738381 0.16599995 2632223
0.69269615 0.072205342 0.16999996 1052688
0.69495976 0.080119647 0.14199996 2961188
0.69427788 0.078479685 0.14699996 2961188
0.69332325 0.076866299 0.15399998 2961188
0.69114131 0.072205342 0.16999996 1579285
0.69333172 0.080119647 0.14199996 2961188
0.69266295 0.078479685 0.14699996 2961188
0.69186038 0.076866075 0.15299994 2961188
0.69119161 0.075280994 0.15799993 2961188
0.68958652 0.072205342 0.16999996 1776662
0.69117916 0.078482084 0.14599997 3026981
0.69039232 0.076865859 0.15199995 2961188
0.68960541 0.075280994 0.15799993 3026983
0.6881628 0.072197281 0.16899997 3026983
0.68879044 0.076865859 0.15199995 2896165
0.68801928 0.075280994 0.15799993 2896167
0.68660539 0.072197281 0.16899997 3158569
0.68844777 0.080119647 0.14199996 3026981
0.68794411 0.078482084 0.14599997 3026981
0.68718857 0.076865859 0.15199995 2961958
0.68655896 0.075278163 0.15699995 2896165
0.68580347 0.073722042 0.16299993 2896165
0.68529981 0.072181165 0.16699994 3355694
0.68681979 0.080119647 0.14199996 2961188
0.68632656 0.078482084 0.14599997 2961188
0.68558675 0.076865859 0.15199995 3092774
0.6849702 0.075278163 0.15699995 2961960
0.68435365 0.073716596 0.16199994 2896167
0.68373716 0.072181165 0.16699994 3421487
0.68519181 0.080119647 0.14199996 2961188
0.68470901 0.078482084 0.14599997 2961188
0.68398488 0.076865859 0.15199995 3092774
0.68338144 0.075278163 0.15699995 3026983
0.68277794 0.073716596 0.16199994 3026983
0.6821745 0.072181165 0.16699994 3421741
0.68344575 0.08011464 0.14299995 2961188
0.68297344 0.078479685 0.14699996 2961188
0.682383 0.076865859 0.15199995 3092774
0.68179262 0.075278163 0.15699995 3026981
0.68120223 0.073716596 0.16199994 3092774
0.68072993 0.072173104 0.16599995 3355948
0.68170488 0.080109634 0.14399993 3026981
0.68135852 0.078479685 0.14699996 2961188
0.68078119 0.076865859 0.15199995 2961958
0.68020386 0.075278163 0.15699995 2896165
0.67974198 0.073711157 0.16099995 2896165
0.67916465 0.072173104 0.16599995 3355948
0.68030787 0.081747636 0.14199996 3026981
0.68008214 0.080109634 0.14399993 3026981
0.67963076 0.078477293 0.14799994 2961188
0.67906648 0.076866075 0.15299994 3092774
0.67861503 0.075278163 0.15699995 2896165
0.67816365 0.073711157 0.16099995 2896165
0.67759937 0.072173104 0.16599995 3225130
0.67856961 0.081740014 0.14299995 3158567
0.67823887 0.080099612 0.14599997 3092774
0.67790818 0.078474902 0.14899993 3026981
0.67735696 0.076866299 0.15399998 3027751
0.676916 0.075280994 0.15799993 3027751
0.67636478 0.073722042 0.16299993 3027751
0.67603409 0.072173104 0.16599995 3159337
0.67705184 0.083375618 0.14199996 3158565
0.67683661 0.081732392 0.14399993 3158565
0.67651373 0.080094606 0.14699996 3092774
0.67619085 0.078472503 0.14999998 3026981
0.67565274 0.076866515 0.15499997 3092774
0.67511457 0.075286657 0.15999997 3027751
0.67468405 0.073727489 0.16399997 3027751
0.67436117 0.072181165 0.16699994 3225130
0.67531884 0.083365388 0.14299995 3092774
0.67500383 0.081717148 0.14599997 3158567
0.67468882 0.080084592 0.14899993 3092774
0.67437375 0.078467719 0.15199995 3092774
0.67384869 0.076866955 0.15699995 3092774
0.6734286 0.075289495 0.16099995 3158567
0.67300856 0.073732935 0.16499996 3027753
0.67269349 0.072189227 0.16799998 3225132
0.67379588 0.085003607 0.14199996 3421737
0.67359108 0.083355151 0.14399993 3092774
0.67328387 0.081709534 0.14699996 3092774
0.67297667 0.080079585 0.14999998 3092774
0.67256707 0.078462929 0.15399998 3092774
0.67215747 0.076867171 0.15799993 3092774
0.67174786 0.075292327 0.16199994 3027751
0.67133826 0.073738381 0.16599995 3159337
0.67103106 0.072197281 0.16899997 3290923
0.6721679 0.085003607 0.14199996 3421737
0.67186856 0.083344921 0.14499998 3092772
0.67156917 0.081701912 0.14799994 3092772
0.67126983 0.080074579 0.15099996 3026981
0.67087066 0.078460529 0.15499997 3092774
0.67037171 0.07686761 0.15999997 3092774
0.66997254 0.075297989 0.16399997 3027751
0.6696732 0.073743828 0.16699994 3225130
0.66927403 0.072213396 0.17099994 3356716
0.67034554 0.084977917 0.14399993 3355944
0.67005402 0.083324455 0.14699996 3092772
0.66976249 0.081686668 0.14999998 3092772
0.66937381 0.080059558 0.15399998 3092774
0.66908228 0.078455746 0.15699995 3092774
0.6686936 0.076867826 0.16099995 2961958
0.66820771 0.075303651 0.16599995 3027751
0.66791618 0.073754713 0.16899997 3290925
0.66762465 0.072221458 0.17199993 3422511
0.66891193 0.086631596 0.14199996 3553323
0.66872281 0.084977917 0.14399993 3355944
0.66843915 0.083324455 0.14699996 3092772
0.6680609 0.081679046 0.15099996 3092772
0.66768265 0.080054551 0.15499997 3026981
0.6673044 0.078450955 0.15899998 3092774
0.66683155 0.076868489 0.16399997 3158567
0.66654789 0.075306483 0.16699994 3158567
0.66626418 0.073760159 0.16999996 3290925
0.66588593 0.072237574 0.17399997 3488304
0.66728395 0.086631596 0.14199996 3553323
0.66691613 0.08495222 0.14599997 3355944
0.66664028 0.083303988 0.14899993 3092774
0.66618055 0.081656188 0.15399998 3092774
0.66581279 0.080039524 0.15799993 3026981
0.66544497 0.078443773 0.16199994 3092774
0.66507721 0.076868922 0.16599995 3290153
0.66480136 0.075312145 0.16899997 3158567
0.66452551 0.073771052 0.17199993 3421741
0.66424966 0.072245635 0.17499995 3290671
0.66565597 0.086631596 0.14199996 3553325
0.66520929 0.084939376 0.14699996 3487275
0.66494125 0.083293751 0.14999998 3355689
0.66449457 0.081648566 0.15499997 3224103
0.6640479 0.08002951 0.15999997 3158312
0.66369057 0.078438982 0.16399997 3224105
0.66333324 0.076869361 0.16799998 3421482
0.66306525 0.075317815 0.17099994 3355689
0.66279721 0.073781937 0.17399997 3421741
0.66261858 0.072253689 0.17599994 3289901
0.66359437 0.084939376 0.14699996 5724492
0.66316074 0.083273284 0.15199995 5724492
0.66238022 0.080024503 0.16099995 5526856
0.66194665 0.078434192 0.16599995 5329477
0.66116613 0.073787384 0.17499995 5263941
0.66107941 0.072253689 0.17599994 5133129
0.66105425 0.0816257 0.15799993 5790285
0.66029727 0.0784318 0.16699994 5527113
0.65996081 0.076870017 0.17099994 5395527
0.6597085 0.075326309 0.17399997 5263941
0.6595403 0.07379283 0.17599994 5395527
0.65811855 0.08324258 0.15499997 4409404
0.65560925 0.081557117 0.16699994 3355948
0.65492284 0.076871112 0.17599994 3421487
0.65469402 0.075340465 0.17899996 3355694
0.65461779 0.073814608 0.17999995 3421487
0.65454149 0.072293982 0.18099993 2960681
0.65316272 0.075340465 0.17899996 3092265
0.65301543 0.073820055 0.18099993 3092265
0.65294176 0.072302043 0.18199998 3092267
0.65294176 0.070778579 0.18199998 4539713
0.65141833 0.072302043 0.18199998 4408379
