# .PCD v0.7 - Point Cloud Data file format
VERSION 0.7
FIELDS x y z rgb
SIZE 4 4 4 4
TYPE F F F U
COUNT 1 1 1 1
WIDTH 1130
HEIGHT 1
VIEWPOINT 0 0 0 1 0 0 0
POINTS 1130
DATA ascii
0.73220015 0.052791242 0.18899995 5329227
0.73177588 0.051375359 0.19099998 5000262
0.73113942 0.050017182 0.19399995 4868676
0.73092723 -0.066115849 0.19499993 5921113
0.73135155 -0.068112724 0.19299996 6908516
0.73177588 -0.070120029 0.19099998 7105895
0.73198801 -0.071878918 0.18999994 7303271
0.73220015 -0.073642991 0.18899995 6974306
0.73220015 -0.075148173 0.18899995 7630953
0.73241234 -0.076920085 0.18799996 9210498
0.73262447 -0.078697257 0.18699998 8552053
0.7328366 -0.080479644 0.18599993 7499365
0.7330488 -0.082267247 0.18499994 8025709
0.73410952 -0.08516892 0.17999995 7303267
0.73495817 -0.087816916 0.17599994 7369062
0.7360189 -0.09076824 0.17099994 7303271
0.73729181 -0.09403076 0.16499996 6974306
0.73216176 0.072302043 0.18199998 6119519
0.73174268 0.070799924 0.18399996 6975849
0.73174268 0.069281682 0.18399996 7106665
0.73174268 0.067763448 0.18399996 7369067
0.73174268 0.066245213 0.18399996 7369067
0.73153317 0.064748101 0.18499994 7566700
0.73153317 0.063232481 0.18499994 7500907
0.73153317 0.061716858 0.18499994 7500907
0.73153317 0.060201235 0.18499994 7369321
0.73174268 0.05865404 0.18399996 7303528
0.73153317 0.057169992 0.18499994 6908770
0.73153317 0.055654369 0.18499994 6382169
0.7313236 0.054178163 0.18599993 5987157
0.73069501 0.052791242 0.18899995 5329227
0.73027593 0.051375359 0.19099998 4934469
0.72964728 0.050017182 0.19399995 4802883
0.72943777 -0.066115849 0.19499993 5526355
0.72985685 -0.068112724 0.19299996 6711137
0.73027593 -0.070120029 0.19099998 6842723
0.73048544 -0.071878918 0.18999994 6645087
0.73069501 -0.073642991 0.18899995 6513501
0.73069501 -0.075148173 0.18899995 6315606
0.73090452 -0.076920085 0.18799996 6052432
0.73090452 -0.078427888 0.18799996 6380884
0.7313236 -0.080479644 0.18599993 6118225
0.73153317 -0.082267247 0.18499994 6447190
0.73258084 -0.08516892 0.17999995 6513753
0.733419 -0.087816916 0.17599994 7171685
0.73446673 -0.09076824 0.17099994 7237478
0.73572397 -0.09403076 0.16499996 6908513
0.73105216 0.07228592 0.17999995 6118751
0.73043138 0.070789248 0.18299997 7040872
0.73022449 0.069281682 0.18399996 7106665
0.73022449 0.067763448 0.18399996 7237735
0.73022449 0.066245213 0.18399996 7171942
0.73001754 0.064748101 0.18499994 7171942
0.73001754 0.063232481 0.18499994 6841435
0.73001754 0.061716858 0.18499994 6643284
0.73001754 0.060201235 0.18499994 7763048
0.73022449 0.05865404 0.18399996 7565669
0.73001754 0.057169992 0.18499994 6908511
0.73001754 0.055654369 0.18499994 6316376
0.72960365 0.054217581 0.18699998 5921364
0.72918981 0.052791242 0.18899995 5263434
0.72877598 0.051375359 0.19099998 4934469
0.72836214 0.049969926 0.19299996 4868676
0.72794825 -0.066115849 0.19499993 5526608
0.72836214 -0.068112724 0.19299996 6711137
0.72877598 -0.070120029 0.19099998 6842720
0.72898293 -0.071878918 0.18999994 6381145
0.72918981 -0.073642991 0.18899995 5460043
0.72918981 -0.075148173 0.18899995 5985874
0.72939676 -0.076920085 0.18799996 6051919
0.72939676 -0.078427888 0.18799996 6512470
0.72960365 -0.080207638 0.18699998 6315606
0.73001754 -0.082267247 0.18499994 6315606
0.73084521 -0.084891714 0.18099993 6382169
0.73187989 -0.087816916 0.17599994 7105892
0.73291451 -0.09076824 0.17099994 7171685
0.73394912 -0.093745716 0.16599995 6842720
0.7297278 0.072277866 0.17899996 5987163
0.72891057 0.070789248 0.18299997 6975079
0.72870624 0.069281682 0.18399996 7040872
0.72870624 0.067763448 0.18399996 7171942
0.72870624 0.066245213 0.18399996 7106149
0.72850192 0.064748101 0.18499994 6908768
0.72850192 0.063232481 0.18499994 9405047
0.72850192 0.061716858 0.18499994 5589823
0.72850192 0.060201235 0.18499994 10328462
0.72850192 0.058685616 0.18499994 7894121
0.72850192 0.057169992 0.18499994 6907741
0.72850192 0.055654369 0.18499994 6316376
0.72788894 0.054256998 0.18799996 5855571
0.72768468 0.052791242 0.18899995 5131848
0.72727603 0.051375359 0.19099998 4934469
0.72686738 0.049969926 0.19299996 4802883
0.72645879 -0.066115849 0.19499993 5592401
0.7270717 -0.068366416 0.19199997 6776927
0.72727603 -0.070120029 0.19099998 6776927
0.72768468 -0.07213784 0.18899995 6578265
0.72768468 -0.073642991 0.18899995 6841183
0.72788894 -0.075412311 0.18799996 8420215
0.72788894 -0.076920085 0.18799996 8617078
0.72809327 -0.078697257 0.18699998 9406592
0.72829759 -0.080479644 0.18599993 8749947
0.72850192 -0.082267247 0.18499994 9605256
0.72952348 -0.08516892 0.17999995 6644319
0.73034072 -0.087816916 0.17599994 7105892
0.73136228 -0.09076824 0.17099994 7105892
0.73258817 -0.09403076 0.16499996 6842720
0.7281965 0.072277866 0.17899996 5855320
0.72738969 0.070789248 0.18299997 6975079
0.72718799 0.069281682 0.18399996 7040872
0.72718799 0.067763448 0.18399996 7040102
0.72718799 0.066245213 0.18399996 6776930
0.72698629 0.064748101 0.18499994 6711132
0.72698629 0.063232481 0.18499994 8748151
0.72698629 0.061716858 0.18499994 11448228
0.72698629 0.060201235 0.18499994 9012084
0.72698629 0.058685616 0.18499994 9275256
0.72698629 0.057169992 0.18499994 6643284
0.72678459 0.055691175 0.18599993 6184788
0.72638118 0.054256998 0.18799996 5790032
0.72617948 0.052791242 0.18899995 5066055
0.72577608 0.051375359 0.19099998 4803394
0.72537267 0.049969926 0.19299996 4671808
0.72496927 -0.066115849 0.19499993 5723987
0.72557437 -0.068366416 0.19199997 6776673
0.72577608 -0.070120029 0.19099998 6908259
0.72617948 -0.07213784 0.18899995 7499628
0.72617948 -0.073642991 0.18899995 7105122
0.72638118 -0.075412311 0.18799996 6973536
0.72638118 -0.076920085 0.18799996 7432804
0.72678459 -0.07896664 0.18599993 9472387
0.72678459 -0.080479644 0.18599993 11513253
0.72698629 -0.082267247 0.18499994 9276291
0.7279948 -0.08516892 0.17999995 6973282
0.72880161 -0.087816916 0.17599994 7236708
0.72981012 -0.09076824 0.17099994 6974306
0.73102027 -0.09403076 0.16499996 6842720
0.72686428 0.072269805 0.17799997 5461072
0.72586882 0.070789248 0.18299997 6975079
0.72566974 0.069281682 0.18399996 7171688
0.72566974 0.067763448 0.18399996 6974052
0.72566974 0.066245213 0.18399996 6973534
0.72547066 0.064748101 0.18499994 7236706
0.72547066 0.063232481 0.18499994 8879735
0.72547066 0.061716858 0.18499994 13092281
0.72547066 0.060201235 0.18499994 10064772
0.72547066 0.058685616 0.18499994 8551533
0.72547066 0.057169992 0.18499994 6314321
0.72527158 0.055691175 0.18599993 5987409
0.72487342 0.054256998 0.18799996 5724239
0.72467434 0.052791242 0.18899995 5066055
0.72427613 0.051375359 0.19099998 4737601
0.72387797 0.049969926 0.19299996 4671808
0.72367889 -0.066366933 0.19399995 5789780
0.72407705 -0.068366416 0.19199997 6908259
0.72447526 -0.070376359 0.18999994 6974052
0.72467434 -0.07213784 0.18899995 7039075
0.72487342 -0.073904522 0.18799996 7302247
0.72487342 -0.075412311 0.18799996 6578524
0.7250725 -0.077186845 0.18699998 9998731
0.72527158 -0.07896664 0.18599993 10393489
0.72527158 -0.080479644 0.18599993 7695976
0.72566974 -0.082541846 0.18399996 7893355
0.7266652 -0.085446127 0.17899996 7236708
0.72746152 -0.088096745 0.17499995 7302501
0.72845697 -0.091050677 0.16999996 7105638
0.72945243 -0.09403076 0.16499996 6776673
0.72552681 0.072261751 0.17699999 5526608
0.72454447 0.070778579 0.18199998 7105895
0.72434801 0.069268405 0.18299997 7237735
0.72434801 0.067747556 0.18299997 6908513
0.72415149 0.066245213 0.18399996 7368292
0.72415149 0.064726979 0.18399996 7434085
0.72395504 0.063232481 0.18499994 8749430
0.72395504 0.061716858 0.18499994 6248526
0.72395504 0.060201235 0.18499994 6182987
0.72395504 0.058685616 0.18499994 6643538
0.72395504 0.057169992 0.18499994 5855053
0.72375858 0.055691175 0.18599993 5790032
0.7233656 0.054256998 0.18799996 5526606
0.72316915 0.052791242 0.18899995 4868676
0.72277617 0.051375359 0.19099998 4409152
0.72238326 0.049969926 0.19299996 4343359
0.7221868 -0.066366933 0.19399995 5986906
0.72257972 -0.068366416 0.19199997 7040102
0.72297269 -0.070376359 0.18999994 7105895
0.7233656 -0.072396748 0.18799996 7236454
0.7233656 -0.073904522 0.18799996 6973282
0.72356212 -0.075676464 0.18699998 6907489
0.72375858 -0.077453621 0.18599993 7433835
0.72375858 -0.07896664 0.18599993 7499113
0.72395504 -0.08075162 0.18499994 7565160
0.72434801 -0.082816444 0.18299997 7630953
0.7251339 -0.085446127 0.17899996 7434087
0.72611624 -0.088376559 0.17399997 7434087
0.72690213 -0.091050677 0.16999996 7368294
0.72808099 -0.094315805 0.16399997 7105122
0.72418416 0.072253689 0.17599994 5131848
0.72302103 0.070778579 0.18199998 7237735
0.72282714 0.069268405 0.18299997 7303528
0.72282714 0.067747556 0.18299997 6842720
0.72282714 0.066226706 0.18299997 8619129
0.7226333 0.064726979 0.18399996 8487543
0.7226333 0.063208744 0.18399996 6183503
0.7226333 0.061690509 0.18399996 6249296
0.7226333 0.060172275 0.18399996 10065803
0.72243941 0.058685616 0.18499994 6250581
0.72243941 0.057169992 0.18499994 5724237
0.72224557 0.055691175 0.18599993 5658449
0.72185785 0.054256998 0.18799996 5395277
0.72166395 0.052791242 0.18899995 4737347
0.72127628 0.051375359 0.19099998 4474175
0.72088856 0.049969926 0.19299996 4474175
0.72088856 -0.066618003 0.19299996 6184287
0.72108239 -0.068366416 0.19199997 6909286
0.72147012 -0.070376359 0.18999994 7105895
0.72185785 -0.072396748 0.18799996 7237224
0.72205168 -0.074166052 0.18699998 7368040
0.72224557 -0.075940616 0.18599993 7236454
0.72224557 -0.077453621 0.18599993 7433833
0.72243941 -0.079236008 0.18499994 7499626
0.72243941 -0.08075162 0.18499994 7697259
0.72302103 -0.083091043 0.18199998 7763052
0.72379643 -0.085723333 0.17799997 7499878
0.72457188 -0.088376559 0.17399997 7499878
0.72554117 -0.091333114 0.16899997 7434087
0.72651052 -0.094315805 0.16399997 7302501
0.72264504 0.072253689 0.17599994 4934471
0.72168881 0.070767909 0.18099993 7171942
0.72149754 0.069255114 0.18199998 7237735
0.72149754 0.067731656 0.18199998 6777184
0.72130632 0.066226706 0.18299997 7303271
0.72130632 0.064705856 0.18299997 7763822
0.72111505 0.063208744 0.18399996 6512983
0.72111505 0.061690509 0.18399996 6644569
0.72111505 0.060172275 0.18399996 7894636
0.72092378 0.058685616 0.18499994 6184790
0.72092378 0.057169992 0.18499994 5724239
0.72073257 0.055691175 0.18599993 5724496
0.72035003 0.054256998 0.18799996 5395277
0.72015882 0.052791242 0.18899995 4671554
0.71977633 0.051375359 0.19099998 4474175
0.71939379 0.049969926 0.19299996 4408382
0.71939379 -0.066618003 0.19299996 6119002
0.71977633 -0.068620093 0.19099998 6777702
0.72015882 -0.070632659 0.18899995 7040104
0.72035003 -0.072396748 0.18799996 7303276
0.72073257 -0.074427597 0.18599993 7500655
0.72073257 -0.075940616 0.18599993 7631982
0.72092378 -0.077720381 0.18499994 7566189
0.72092378 -0.079236008 0.18499994 7631982
0.72092378 -0.08075162 0.18499994 7763822
0.72149754 -0.083091043 0.18199998 7763822
0.7222625 -0.085723333 0.17799997 7698027
0.72302753 -0.088376559 0.17399997 7763050
0.72379249 -0.091050677 0.16999996 7434085
0.72494 -0.094315805 0.16399997 7302499
0.72035134 0.070757233 0.17999995 6975079
0.7199741 0.069255114 0.18199998 7041126
0.7199741 0.067731656 0.18199998 6777954
0.7199741 0.066208199 0.18199998 6645598
0.71978545 0.064705856 0.18299997 6777184
0.71978545 0.063185006 0.18299997 6447962
0.71978545 0.06166416 0.18299997 6382167
0.7195968 0.060172275 0.18399996 6382167
0.7195968 0.05865404 0.18399996 6250581
0.71940815 0.057169992 0.18499994 6184788
0.71921957 0.055691175 0.18599993 5790289
0.71884227 0.054256998 0.18799996 5395277
0.71865362 0.052791242 0.18899995 4671554
0.71827638 0.051375359 0.19099998 4474175
0.71789908 0.049969926 0.19299996 4408382
0.71789908 -0.066618003 0.19299996 6316122
0.71827638 -0.068620093 0.19099998 6711909
0.71865362 -0.070632659 0.18899995 7040104
0.71884227 -0.072396748 0.18799996 7434603
0.71921957 -0.074427597 0.18599993 7631982
0.71921957 -0.075940616 0.18599993 7697775
0.71940815 -0.077720381 0.18499994 7631982
0.71940815 -0.079236008 0.18499994 7697775
0.71940815 -0.08075162 0.18499994 7698029
0.7199741 -0.083091043 0.18199998 7763822
0.72072864 -0.085723333 0.17799997 7632234
0.72148317 -0.088376559 0.17399997 7632234
0.72223771 -0.091050677 0.16999996 7499878
0.72318089 -0.09403076 0.16499996 7368292
0.71882266 0.070757233 0.17999995 6909286
0.71863663 0.069241829 0.18099993 7041126
0.71863663 0.067715757 0.18099993 6975333
0.71845061 0.066208199 0.18199998 6711391
0.71845061 0.064684734 0.18199998 6711391
0.71826458 0.063185006 0.18299997 6448219
0.71826458 0.06166416 0.18299997 6579805
0.71826458 0.060143311 0.18299997 6448219
0.71807855 0.05865404 0.18399996 6382426
0.71789253 0.057169992 0.18499994 6250840
0.71770656 0.055691175 0.18599993 5790289
0.71733451 0.054256998 0.18799996 5461070
0.71714848 0.052791242 0.18899995 4671554
0.71677643 0.051375359 0.19099998 4474175
0.71640438 0.049969926 0.19299996 4408382
0.7165904 -0.066869088 0.19199997 6316122
0.71677643 -0.068620093 0.19099998 6776930
0.71714848 -0.070632659 0.18899995 6974052
0.71733451 -0.072396748 0.18799996 7368810
0.71770656 -0.074427597 0.18599993 7631982
0.71770656 -0.075940616 0.18599993 7763568
0.71770656 -0.077453621 0.18599993 7697775
0.71789253 -0.079236008 0.18499994 7697775
0.71789253 -0.08075162 0.18499994 7698029
0.71845061 -0.083091043 0.18199998 7763822
0.71900868 -0.085446127 0.17899996 7632236
0.71993881 -0.088376559 0.17399997 7632234
0.72068286 -0.091050677 0.16999996 7434855
0.72142696 -0.093745716 0.16599995 7171683
0.71729398 0.070757233 0.17999995 6711907
0.71711057 0.069241829 0.18099993 6909540
0.71711057 0.067715757 0.18099993 6975333
0.71711057 0.066189684 0.18099993 6908770
0.71692717 0.064684734 0.18199998 7040356
0.71692717 0.063161269 0.18199998 6777184
0.71674377 0.06166416 0.18299997 6842977
0.71674377 0.060143311 0.18299997 6777184
0.71656036 0.05865404 0.18399996 6579805
0.7163769 0.057169992 0.18499994 6316633
0.71619356 0.055691175 0.18599993 5790289
0.71582669 0.054256998 0.18799996 5461070
0.71564329 0.052791242 0.18899995 4737347
0.71527648 0.051375359 0.19099998 4474175
0.71509308 0.049922671 0.19199997 4408382
0.71509308 -0.066869088 0.19199997 6447708
0.71527648 -0.068620093 0.19099998 6776673
0.71564329 -0.070632659 0.18899995 6974052
0.71582669 -0.072396748 0.18799996 7368810
0.71619356 -0.074427597 0.18599993 7631982
0.71619356 -0.075940616 0.18599993 7697775
0.71619356 -0.077453621 0.18599993 7763568
0.7163769 -0.079236008 0.18499994 7697775
0.7163769 -0.08075162 0.18499994 7894384
0.71674377 -0.082816444 0.18299997 7828591
0.71747738 -0.085446127 0.17899996 7631982
0.718211 -0.088096745 0.17499995 7566443
0.71894467 -0.09076824 0.17099994 7434857
0.71986169 -0.093745716 0.16599995 7303271
0.7157653 0.070757233 0.17999995 6842977
0.71558452 0.069241829 0.18099993 6777954
0.71558452 0.067715757 0.18099993 6909540
0.71540368 0.066208199 0.18199998 7040356
0.71540368 0.064684734 0.18199998 6908770
0.71540368 0.063161269 0.18199998 6842977
0.7152229 0.06166416 0.18299997 6842977
0.7152229 0.060143311 0.18299997 6842977
0.71504211 0.05865404 0.18399996 6645598
0.71486133 0.057169992 0.18499994 6382426
0.71468049 0.055691175 0.18599993 5856082
0.71431893 0.054256998 0.18799996 5461070
0.71413815 0.052791242 0.18899995 4803140
0.71377653 0.051375359 0.19099998 4474175
0.71359575 0.049922671 0.19199997 4408382
0.71359575 -0.066869088 0.19199997 6381915
0.71377653 -0.068620093 0.19099998 6776673
0.71413815 -0.070632659 0.18899995 6974052
0.71431893 -0.072396748 0.18799996 7368810
0.71468049 -0.074427597 0.18599993 7762798
0.71468049 -0.075940616 0.18599993 7828591
0.71468049 -0.077453621 0.18599993 7894384
0.71486133 -0.079236008 0.18499994 7894384
0.71486133 -0.08075162 0.18499994 7894384
0.7152229 -0.082816444 0.18299997 7828591
0.71594608 -0.085446127 0.17899996 7631982
0.71666926 -0.088096745 0.17499995 7566189
0.71739244 -0.09076824 0.17099994 7434857
0.71811563 -0.093460672 0.16699994 7303271
0.71423662 0.070757233 0.17999995 6842977
0.71423662 0.069228545 0.17999995 6842977
0.7140584 0.067715757 0.18099993 6909540
0.71388024 0.066208199 0.18199998 7040356
0.71388024 0.064684734 0.18199998 6908770
0.71370202 0.063185006 0.18299997 6842977
0.71370202 0.06166416 0.18299997 6842977
0.71370202 0.060143311 0.18299997 6842977
0.71352386 0.05865404 0.18399996 6645598
0.71334571 0.057169992 0.18499994 6382426
0.71316749 0.055691175 0.18599993 5856082
0.71281111 0.054256998 0.18799996 5526863
0.71263295 0.052791242 0.18899995 4803140
0.7124548 0.051330715 0.18999994 4408382
0.71209842 0.049922671 0.19199997 4342589
0.71209842 -0.066869088 0.19199997 6316122
0.71227658 -0.068620093 0.19099998 6776673
0.71263295 -0.070632659 0.18899995 6974052
0.71281111 -0.072396748 0.18799996 7499626
0.71298933 -0.074166052 0.18699998 7762798
0.71316749 -0.075940616 0.18599993 7828591
0.71316749 -0.077453621 0.18599993 7894384
0.71316749 -0.07896664 0.18599993 7894384
0.71334571 -0.08075162 0.18499994 7828591
0.71370202 -0.082816444 0.18299997 7828591
0.71423662 -0.08516892 0.17999995 7697005
0.71494931 -0.087816916 0.17599994 7566189
0.71566206 -0.090485804 0.17199993 7434603
0.71655297 -0.093460672 0.16699994 7303017
0.71270794 0.070757233 0.17999995 6842720
0.71270794 0.069228545 0.17999995 6908770
0.71235675 0.067731656 0.18199998 7040356
0.71235675 0.066208199 0.18199998 6908770
0.71235675 0.064684734 0.18199998 6908770
0.71218121 0.063185006 0.18299997 6777184
0.71218121 0.06166416 0.18299997 6842977
0.71218121 0.060143311 0.18299997 6842977
0.71200562 0.05865404 0.18399996 6711391
0.71183008 0.057169992 0.18499994 6448219
0.71165448 0.055691175 0.18599993 5987668
0.71147895 0.054217581 0.18699998 5658449
0.71112776 0.052791242 0.18899995 4868933
0.71095222 0.051330715 0.18999994 4474175
0.71077663 0.049875416 0.19099998 4342589
0.71060109 -0.066869088 0.19199997 6381915
0.71077663 -0.068620093 0.19099998 6842466
0.71095222 -0.070376359 0.18999994 7171685
0.71130335 -0.072396748 0.18799996 7499880
0.71130335 -0.073904522 0.18799996 7763052
0.71147895 -0.075676464 0.18699998 7828845
0.71165448 -0.077453621 0.18599993 7894638
0.71165448 -0.07896664 0.18599993 7894638
0.71183008 -0.08075162 0.18499994 7894638
0.71200562 -0.082541846 0.18399996 7894638
0.71270794 -0.08516892 0.17999995 7763052
0.7134102 -0.087816916 0.17599994 7566443
0.71411246 -0.090485804 0.17199993 7434857
0.71499032 -0.093460672 0.16699994 7369064
0.7111792 0.070757233 0.17999995 6777184
0.7111792 0.069228545 0.17999995 6908770
0.71083331 0.067731656 0.18199998 7040356
0.71083331 0.066208199 0.18199998 6908770
0.71066034 0.064705856 0.18299997 6842977
0.71066034 0.063185006 0.18299997 6777184
0.71066034 0.06166416 0.18299997 6842977
0.71066034 0.060143311 0.18299997 6842977
0.71048737 0.05865404 0.18399996 6711391
0.71031445 0.057169992 0.18499994 6579805
0.71014148 0.055691175 0.18599993 6119254
0.70996851 0.054217581 0.18699998 5724242
0.70979559 0.052749213 0.18799996 4934726
0.70962262 0.051286072 0.18899995 4408382
0.70927668 0.049875416 0.19099998 4342589
0.70910376 -0.066869088 0.19199997 6842468
0.70927668 -0.068620093 0.19099998 7105892
0.70944965 -0.070376359 0.18999994 7171685
0.70962262 -0.07213784 0.18899995 7368294
0.70979559 -0.073904522 0.18799996 7763052
0.70996851 -0.075676464 0.18699998 7828845
0.70996851 -0.077186845 0.18699998 7894638
0.71014148 -0.07896664 0.18599993 7894638
0.71031445 -0.08075162 0.18499994 7828845
0.71048737 -0.082541846 0.18399996 7894638
0.71100628 -0.084891714 0.18099993 7828845
0.71169806 -0.087537088 0.17699999 7828845
0.71256286 -0.090485804 0.17199993 7697259
0.71325469 -0.093175597 0.16799998 7499880
0.70965052 0.070757233 0.17999995 6777184
0.70948023 0.069241829 0.18099993 6908770
0.70930988 0.067731656 0.18199998 7040356
0.70930988 0.066208199 0.18199998 6908770
0.70913953 0.064705856 0.18299997 6908770
0.70913953 0.063185006 0.18299997 6777184
0.70913953 0.06166416 0.18299997 6777184
0.70913953 0.060143311 0.18299997 6777184
0.70896918 0.05865404 0.18399996 6777184
0.70879883 0.057169992 0.18499994 6645598
0.70862848 0.055691175 0.18599993 6185047
0.70845813 0.054217581 0.18699998 5790289
0.70828778 0.052749213 0.18799996 5000519
0.70811749 0.051286072 0.18899995 4408382
0.70794713 0.049828157 0.18999994 4408382
0.70760643 0.048425339 0.19199997 4277566
0.70760643 -0.065371744 0.19199997 6513501
0.70760643 -0.066869088 0.19199997 6974052
0.70777678 -0.068620093 0.19099998 7434855
0.70794713 -0.070376359 0.18999994 7499878
0.70811749 -0.07213784 0.18899995 7565673
0.70828778 -0.073904522 0.18799996 7763052
0.70828778 -0.075412311 0.18799996 7828845
0.70845813 -0.077186845 0.18699998 7894638
0.70862848 -0.07896664 0.18599993 7894638
0.70862848 -0.080479644 0.18599993 7894638
0.70879883 -0.082267247 0.18499994 7894638
0.70930988 -0.084614493 0.18199998 7894638
0.70999122 -0.087257259 0.17799997 7828845
0.71084297 -0.090203352 0.17299998 7763052
0.71169466 -0.093175597 0.16799998 7565673
0.70812184 0.070757233 0.17999995 6777184
0.70795411 0.069241829 0.18099993 6908770
0.70778638 0.067731656 0.18199998 7106149
0.70761865 0.066226706 0.18299997 7040356
0.70761865 0.064705856 0.18299997 6908770
0.70761865 0.063185006 0.18299997 6842977
0.70761865 0.06166416 0.18299997 6842977
0.70761865 0.060143311 0.18299997 6777184
0.70745093 0.05865404 0.18399996 6842977
0.7072832 0.057169992 0.18499994 6711391
0.7072832 0.055654369 0.18499994 6250840
0.70711547 0.054178163 0.18599993 5790289
0.70678002 0.052749213 0.18799996 5000519
0.70661229 0.051286072 0.18899995 4474175
0.70644456 0.049828157 0.18999994 4408382
0.70627683 0.048375472 0.19099998 4409152
0.70610911 -0.065371744 0.19199997 7236708
0.70627683 -0.067120157 0.19099998 7302501
0.70627683 -0.068620093 0.19099998 7566441
0.70644456 -0.070376359 0.18999994 7565671
0.70661229 -0.07213784 0.18899995 7565671
0.70661229 -0.073642991 0.18899995 7828843
0.70678002 -0.075412311 0.18799996 7894636
0.70694774 -0.077186845 0.18699998 7894638
0.70694774 -0.078697257 0.18699998 7960431
0.70711547 -0.080479644 0.18599993 7960431
0.7072832 -0.082267247 0.18499994 8026224
0.70778638 -0.084614493 0.18199998 8026224
0.70845729 -0.087257259 0.17799997 7960431
0.70929599 -0.090203352 0.17299998 7894636
0.71013463 -0.093175597 0.16799998 7697257
0.71097326 -0.096173979 0.16299993 5065026
0.70659316 0.070757233 0.17999995 6842720
0.70642805 0.069241829 0.18099993 6908770
0.70626295 0.067731656 0.18199998 7106149
0.70609784 0.066226706 0.18299997 6908770
0.70609784 0.064705856 0.18299997 6908770
0.70609784 0.063185006 0.18299997 6908770
0.70593268 0.061690509 0.18399996 6908770
0.70609784 0.060143311 0.18299997 6908770
0.70593268 0.05865404 0.18399996 6842977
0.70593268 0.057135805 0.18399996 6777184
0.70576757 0.055654369 0.18499994 6382426
0.70560247 0.054178163 0.18599993 6119254
0.70543736 0.052707188 0.18699998 5197898
0.70527226 0.051241431 0.18799996 4539968
0.70510709 0.049780905 0.18899995 4474175
0.70494199 0.048325602 0.18999994 4869703
0.70461178 -0.065371744 0.19199997 7565673
0.70477688 -0.067120157 0.19099998 7499880
0.70494199 -0.0688738 0.18999994 7828843
0.70494199 -0.070376359 0.18999994 7828843
0.70510709 -0.07213784 0.18899995 7698029
0.70510709 -0.073642991 0.18899995 7960431
0.70527226 -0.075412311 0.18799996 8026224
0.70527226 -0.076920085 0.18799996 8223090
0.70543736 -0.078697257 0.18699998 8223090
0.70560247 -0.080479644 0.18599993 8223090
0.70576757 -0.082267247 0.18499994 8223090
0.70626295 -0.084614493 0.18199998 8091504
0.70692337 -0.087257259 0.17799997 8223090
0.70758384 -0.089920916 0.17399997 8223090
0.70857453 -0.093175597 0.16799998 8025711
0.70940018 -0.096173979 0.16299993 5261122
0.70506448 0.070757233 0.17999995 6908513
0.70490199 0.069241829 0.18099993 7105892
0.70473945 0.067731656 0.18199998 7171685
0.70457697 0.066226706 0.18299997 7040356
0.70457697 0.064705856 0.18299997 7040356
0.70457697 0.063185006 0.18299997 7106149
0.70441449 0.061690509 0.18399996 7040356
0.70441449 0.060172275 0.18399996 7171942
0.70441449 0.05865404 0.18399996 7040356
0.70441449 0.057135805 0.18399996 6908770
0.70425195 0.055654369 0.18499994 6448219
0.70408946 0.054178163 0.18599993 6250840
0.70408946 0.052665152 0.18599993 5461070
0.70376444 0.051241431 0.18799996 4737347
0.70376444 0.04973365 0.18799996 4539968
0.70343947 0.048325602 0.18999994 4869703
0.70327693 -0.065620206 0.19099998 7302247
0.70327693 -0.067120157 0.19099998 7499626
0.70343947 -0.0688738 0.18999994 7894638
0.70360196 -0.070632659 0.18899995 7960431
0.70360196 -0.07213784 0.18899995 7960431
0.70360196 -0.073642991 0.18899995 8091504
0.70376444 -0.075412311 0.18799996 8223090
0.70376444 -0.076920085 0.18799996 8288883
0.70392692 -0.078697257 0.18699998 8354676
0.70408946 -0.080479644 0.18599993 8354676
0.70425195 -0.082267247 0.18499994 8223090
0.70473945 -0.084614493 0.18199998 8288883
0.7053895 -0.087257259 0.17799997 8288883
0.70603949 -0.089920916 0.17399997 8288883
0.7070145 -0.093175597 0.16799998 8091504
0.70782703 -0.096173979 0.16299993 5326915
0.7035358 0.070757233 0.17999995 6908513
0.70337588 0.069241829 0.18099993 7105892
0.70321602 0.067731656 0.18199998 7171685
0.7030561 0.066226706 0.18299997 7106149
0.7030561 0.064705856 0.18299997 7040356
0.7030561 0.063185006 0.18299997 7171942
0.70289624 0.061690509 0.18399996 7171942
0.70289624 0.060172275 0.18399996 7171942
0.70289624 0.05865404 0.18399996 7106149
0.70289624 0.057135805 0.18399996 7040356
0.70273632 0.055654369 0.18499994 6645598
0.70257646 0.054178163 0.18599993 6382169
0.70257646 0.052665152 0.18599993 5658449
0.70241654 0.051196791 0.18699998 4868933
0.70225668 0.04973365 0.18799996 4671554
0.70209676 0.048275735 0.18899995 4869703
0.70177698 -0.065620206 0.19099998 7237224
0.7019369 -0.067371257 0.18999994 7566189
0.7019369 -0.0688738 0.18999994 7960431
0.70209676 -0.070632659 0.18899995 8157810
0.70209676 -0.07213784 0.18899995 8157810
0.70225668 -0.073904522 0.18799996 8157810
0.70225668 -0.075412311 0.18799996 8157810
0.70225668 -0.076920085 0.18799996 8420469
0.70225668 -0.078427888 0.18799996 8420469
0.70257646 -0.080479644 0.18599993 8354676
0.70273632 -0.082267247 0.18499994 8288883
0.7030561 -0.084337287 0.18299997 8354676
0.70385557 -0.087257259 0.17799997 8420469
0.70449513 -0.089920916 0.17399997 8420469
0.70529461 -0.092890553 0.16899997 8682358
0.70609403 -0.095886298 0.16399997 5326915
0.70216435 0.070746563 0.17899996 6842977
0.70200711 0.069228545 0.17999995 7106149
0.70169252 0.067731656 0.18199998 7106149
0.70153528 0.066226706 0.18299997 7303271
0.70153528 0.064705856 0.18299997 7303271
0.70153528 0.063185006 0.18299997 7237735
0.70153528 0.06166416 0.18299997 7303528
0.70153528 0.060143311 0.18299997 7303528
0.70137799 0.05865404 0.18399996 7237735
0.70137799 0.057135805 0.18399996 7171942
0.70122075 0.055654369 0.18499994 6711391
0.70122075 0.05413875 0.18499994 6645341
0.70106345 0.052665152 0.18599993 6184790
0.70090616 0.051196791 0.18699998 5395277
0.70074886 0.04973365 0.18799996 4934726
0.70059162 0.048275735 0.18899995 4934726
0.70027703 -0.065620206 0.19099998 7434603
0.70043433 -0.067371257 0.18999994 7697775
0.70059162 -0.069127493 0.18899995 7895154
0.70059162 -0.070632659 0.18899995 8157810
0.70059162 -0.07213784 0.18899995 8223603
0.70074886 -0.073904522 0.18799996 8223603
0.70074886 -0.075412311 0.18799996 8223603
0.70074886 -0.076920085 0.18799996 8355189
0.70074886 -0.078427888 0.18799996 8355189
0.70106345 -0.080479644 0.18599993 8355189
0.70122075 -0.082267247 0.18499994 8289396
0.70153528 -0.084337287 0.18299997 8289396
0.70232165 -0.087257259 0.17799997 8420469
0.70295078 -0.089920916 0.17399997 8420469
0.70373714 -0.092890553 0.16899997 8550772
0.70452356 -0.095886298 0.16399997 5326915
0.70078772 0.070735894 0.17799997 6777700
0.70047843 0.069228545 0.17999995 7041126
0.70016909 0.067731656 0.18199998 7303528
0.70001441 0.066226706 0.18299997 7237735
0.70001441 0.064705856 0.18299997 7237735
0.70001441 0.063185006 0.18299997 7303528
0.70001441 0.06166416 0.18299997 7369321
0.70001441 0.060143311 0.18299997 7303528
0.70001441 0.058622465 0.18299997 7303528
0.69985974 0.057135805 0.18399996 7237735
0.69970512 0.055654369 0.18499994 7040356
0.69970512 0.05413875 0.18499994 6776927
0.69955045 0.052665152 0.18599993 6382169
0.69955045 0.051152144 0.18599993 5658449
0.69939578 0.049686395 0.18699998 5066312
0.6992411 0.048225865 0.18799996 4934726
0.69893175 -0.065868683 0.18999994 7434603
0.69893175 -0.067371257 0.18999994 7763568
0.69908643 -0.069127493 0.18899995 8026740
0.69908643 -0.070632659 0.18899995 8223603
0.6992411 -0.072396748 0.18799996 8289396
0.6992411 -0.073904522 0.18799996 8355189
0.6992411 -0.075412311 0.18799996 8355189
0.6992411 -0.076920085 0.18799996 8420982
0.6992411 -0.078427888 0.18799996 8486775
0.69955045 -0.080479644 0.18599993 8552055
0.69970512 -0.082267247 0.18499994 8552055
0.70001441 -0.084337287 0.18299997 8486262
0.70063305 -0.086977445 0.17899996 8486262
0.70140642 -0.089920916 0.17399997 8420469
0.70202506 -0.092605509 0.16999996 8617078
0.70295304 -0.095886298 0.16399997 5656393
0.69940585 0.070725225 0.17699999 6909286
0.69910181 0.06921526 0.17899996 7041126
0.69864559 0.067731656 0.18199998 7369321
0.69864559 0.066208199 0.18199998 7237735
0.6984936 0.064705856 0.18299997 7171942
0.6984936 0.063185006 0.18299997 7369321
0.6984936 0.06166416 0.18299997 7500907
0.6984936 0.060143311 0.18299997 7500905
0.6984936 0.058622465 0.18299997 7500905
0.69834149 0.057135805 0.18399996 7500905
0.69834149 0.055617571 0.18399996 7303526
0.6981895 0.05413875 0.18499994 7040354
0.6981895 0.052623123 0.18499994 6777184
0.69803745 0.051152144 0.18599993 6119000
0.69803745 0.049639136 0.18599993 5461070
0.69773334 0.048225865 0.18799996 5000519
0.69742924 -0.064366139 0.18999994 5789778
0.69742924 -0.065868683 0.18999994 7697775
0.69758129 -0.067622326 0.18899995 7895154
0.69758129 -0.069127493 0.18899995 8289142
0.69758129 -0.070632659 0.18899995 8355189
0.69773334 -0.072396748 0.18799996 8420982
0.69773334 -0.073904522 0.18799996 8486775
0.69773334 -0.075412311 0.18799996 8684154
0.69788539 -0.077186845 0.18699998 8618361
0.69773334 -0.078427888 0.18799996 8618361
0.69788539 -0.080207638 0.18699998 8749434
0.6981895 -0.082267247 0.18499994 8682871
0.6984936 -0.084337287 0.18299997 8682871
0.69910181 -0.086977445 0.17899996 8617078
0.699862 -0.089920916 0.17399997 8617078
0.70047021 -0.092605509 0.16999996 8485492
0.70123047 -0.095598631 0.16499996 5590600
0.69801879 0.070714548 0.17599994 7106665
0.69757044 0.06921526 0.17899996 7370091
0.69712216 0.067731656 0.18199998 7632493
0.69712216 0.066208199 0.18199998 7369321
0.69697273 0.064705856 0.18299997 7303528
0.69697273 0.063185006 0.18299997 7500907
0.69697273 0.06166416 0.18299997 7566698
0.69697273 0.060143311 0.18299997 7566698
0.69697273 0.058622465 0.18299997 7632491
0.6968233 0.057135805 0.18399996 7632491
0.69667387 0.055654369 0.18499994 7566698
0.69667387 0.05413875 0.18499994 7369319
0.69667387 0.052623123 0.18499994 7237735
0.69652438 0.051152144 0.18599993 6448219
0.69652438 0.049639136 0.18599993 5658449
0.69637495 0.048175998 0.18699998 5000519
0.69592667 -0.064366139 0.18999994 7566443
0.6960761 -0.06611716 0.18899995 7829361
0.6960761 -0.067622326 0.18899995 8026740
0.69622552 -0.069381185 0.18799996 8420728
0.69622552 -0.070888959 0.18799996 8486521
0.69622552 -0.072396748 0.18799996 8486521
0.69622552 -0.073904522 0.18799996 8618361
0.69637495 -0.075676464 0.18699998 8684154
0.69637495 -0.077186845 0.18699998 8486775
0.69622552 -0.078427888 0.18799996 8618361
0.69637495 -0.080207638 0.18699998 8749434
0.69652438 -0.081992663 0.18599993 8682871
0.69697273 -0.084337287 0.18299997 8682871
0.69757044 -0.086977445 0.17899996 8617078
0.69831765 -0.089920916 0.17399997 8617078
0.69891542 -0.092605509 0.16999996 8485492
0.69966257 -0.095598631 0.16499996 5722186
0.69647968 0.070714548 0.17599994 7369837
0.6960392 0.06921526 0.17899996 7370091
0.69574553 0.067715757 0.18099993 7632493
0.69559872 0.066208199 0.18199998 7566700
0.69545186 0.064705856 0.18299997 7500907
0.69545186 0.063185006 0.18299997 7566700
0.69545186 0.06166416 0.18299997 7632491
0.69545186 0.060143311 0.18299997 7566698
0.69530505 0.05865404 0.18399996 7698284
0.69530505 0.057135805 0.18399996 7698284
0.69530505 0.055617571 0.18399996 7632491
0.69515824 0.05413875 0.18499994 7500905
0.69515824 0.052623123 0.18499994 7303526
0.69515824 0.051107503 0.18499994 6645598
0.69501138 0.049639136 0.18599993 6316633
0.69501138 0.048126128 0.18599993 5133129
0.69442409 -0.062863581 0.18999994 4670529
0.69442409 -0.064366139 0.18999994 8092787
0.6945709 -0.06611716 0.18899995 8158580
0.6945709 -0.067622326 0.18899995 8158580
0.69471776 -0.069381185 0.18799996 8486775
0.69471776 -0.070888959 0.18799996 8683900
0.69471776 -0.072396748 0.18799996 8749693
0.69471776 -0.073904522 0.18799996 8683900
0.69486457 -0.075676464 0.18699998 8618107
0.69471776 -0.076920085 0.18799996 8486775
0.69471776 -0.078427888 0.18799996 8486775
0.69486457 -0.080207638 0.18699998 8618361
0.69501138 -0.081992663 0.18599993 8618361
0.69545186 -0.084337287 0.18299997 8618361
0.6960392 -0.086977445 0.17899996 8618361
0.69662648 -0.089638494 0.17499995 8486775
0.69736058 -0.092605509 0.16999996 8223090
0.69809473 -0.095598631 0.16499996 6117714
0.69508469 0.070703879 0.17499995 7566448
0.69450784 0.06921526 0.17899996 7370091
0.69407523 0.067731656 0.18199998 7566700
0.69407523 0.066208199 0.18199998 7566700
0.69393104 0.064705856 0.18299997 7566700
0.69393104 0.063185006 0.18299997 7566700
0.69393104 0.06166416 0.18299997 7632491
0.69393104 0.060143311 0.18299997 7698284
0.69393104 0.058622465 0.18299997 7698284
0.6937868 0.057135805 0.18399996 7698284
0.6937868 0.055617571 0.18399996 7698284
0.69364262 0.05413875 0.18499994 7698284
0.69364262 0.052623123 0.18499994 7632491
0.69364262 0.051107503 0.18499994 7040354
0.69364262 0.049591884 0.18499994 6777182
0.69349837 0.048126128 0.18599993 5725266
0.69292152 -0.064366139 0.18999994 7763822
0.69306576 -0.06611716 0.18899995 8158580
0.69306576 -0.067622326 0.18899995 8158580
0.69320995 -0.069381185 0.18799996 8618361
0.69320995 -0.070888959 0.18799996 8749693
0.69320995 -0.072396748 0.18799996 8815486
0.69320995 -0.073904522 0.18799996 8683900
0.69335419 -0.075676464 0.18699998 8486521
0.69320995 -0.076920085 0.18799996 8420982
0.69320995 -0.078427888 0.18799996 8486775
0.69335419 -0.080207638 0.18699998 8618361
0.69364262 -0.082267247 0.18499994 8618361
0.69407523 -0.084614493 0.18199998 8618361
0.69465208 -0.087257259 0.17799997 8618361
0.69508469 -0.089638494 0.17499995 8618361
0.69580579 -0.092605509 0.16999996 8420469
0.69652683 -0.095598631 0.16499996 6117714
0.69354296 0.070703879 0.17499995 7566448
0.69297659 0.06921526 0.17899996 7435884
0.69269335 0.067715757 0.18099993 7566700
0.69255179 0.066208199 0.18199998 7566700
0.69241017 0.064705856 0.18299997 7632493
0.69241017 0.063185006 0.18299997 7632493
0.69241017 0.06166416 0.18299997 7698286
0.69241017 0.060143311 0.18299997 7698286
0.69241017 0.058622465 0.18299997 7764077
0.69226861 0.057135805 0.18399996 7764077
0.69226861 0.055617571 0.18399996 7764077
0.69226861 0.054099333 0.18399996 7829872
0.69212699 0.052623123 0.18499994 7764079
0.69212699 0.051107503 0.18499994 7171942
0.69212699 0.049591884 0.18499994 6842977
0.69198537 0.048126128 0.18599993 6250840
0.69156057 -0.063106813 0.18899995 7566191
0.69156057 -0.064611979 0.18899995 7895408
0.69156057 -0.06611716 0.18899995 8355189
0.69170219 -0.067873411 0.18799996 8618361
0.69170219 -0.069381185 0.18799996 8815740
0.69170219 -0.070888959 0.18799996 8815740
0.69170219 -0.072396748 0.18799996 8881533
0.69170219 -0.073904522 0.18799996 8552055
0.69170219 -0.075412311 0.18799996 8552055
0.69170219 -0.076920085 0.18799996 8486262
0.69170219 -0.078427888 0.18799996 8486262
0.69184375 -0.080207638 0.18699998 8552055
0.69198537 -0.081992663 0.18599993 8683641
0.69255179 -0.084614493 0.18199998 8749434
0.69311816 -0.087257259 0.17799997 8749434
0.69354296 -0.089638494 0.17499995 8683641
0.69425094 -0.092605509 0.16999996 8420469
0.69495893 -0.095598631 0.16499996 6249300
0.69200122 0.070703879 0.17499995 7566448
0.69144529 0.06921526 0.17899996 7435884
0.69116729 0.067715757 0.18099993 7566700
0.6910283 0.066208199 0.18199998 7632493
0.69088936 0.064705856 0.18299997 7632493
0.69088936 0.063185006 0.18299997 7698286
0.69088936 0.06166416 0.18299997 7764079
0.69088936 0.060143311 0.18299997 7829872
0.69088936 0.058622465 0.18299997 7961458
0.69075036 0.057135805 0.18399996 7764079
0.69075036 0.055617571 0.18399996 7961458
0.69075036 0.054099333 0.18399996 7961458
0.69075036 0.052581094 0.18399996 7961458
0.69075036 0.05106286 0.18399996 7369067
0.69061136 0.049591884 0.18499994 7105895
0.69061136 0.048076261 0.18499994 7040356
0.69005543 -0.063106813 0.18899995 8816005
0.69005543 -0.064611979 0.18899995 8618879
0.69005543 -0.06611716 0.18899995 8815486
0.69019437 -0.067873411 0.18799996 8881279
0.69019437 -0.069381185 0.18799996 8881533
0.69019437 -0.070888959 0.18799996 8815740
0.69019437 -0.072396748 0.18799996 8815740
0.69019437 -0.073904522 0.18799996 8683641
0.69019437 -0.075412311 0.18799996 8552055
0.69019437 -0.076920085 0.18799996 8486262
0.69019437 -0.078427888 0.18799996 8486262
0.69033337 -0.080207638 0.18699998 8552055
0.69047236 -0.081992663 0.18599993 8683641
0.6910283 -0.084614493 0.18199998 8749434
0.69158423 -0.087257259 0.17799997 8815227
0.69214022 -0.089920916 0.17399997 8749434
0.69269615 -0.092605509 0.16999996 8420467
0.69339108 -0.095598631 0.16499996 6973021
0.69059581 0.07069321 0.17399997 7566448
0.69005036 0.069201976 0.17799997 7435884
0.68977761 0.067699857 0.17999995 7632493
0.68950486 0.066208199 0.18199998 7632493
0.68936849 0.064705856 0.18299997 7632493
0.68936849 0.063185006 0.18299997 7698286
0.68936849 0.06166416 0.18299997 7829872
0.68936849 0.060143311 0.18299997 7764079
0.68936849 0.058622465 0.18299997 7961458
0.68936849 0.057101615 0.18299997 7829872
0.68923211 0.055617571 0.18399996 8027251
0.68923211 0.054099333 0.18399996 8027251
0.68923211 0.052581094 0.18399996 8027251
0.68923211 0.05106286 0.18399996 7567470
0.68923211 0.049544625 0.18399996 7435884
0.68909574 0.048076261 0.18499994 7172712
0.68855023 -0.063106813 0.18899995 8947591
0.68868661 -0.064857833 0.18799996 8618879
0.68868661 -0.066365622 0.18799996 8750463
0.68868661 -0.067873411 0.18799996 8816256
0.68868661 -0.069381185 0.18799996 8947326
0.68868661 -0.070888959 0.18799996 8815740
0.68868661 -0.072396748 0.18799996 8815740
0.68868661 -0.073904522 0.18799996 8683641
0.68868661 -0.075412311 0.18799996 8683641
0.68868661 -0.076920085 0.18799996 8552055
0.68868661 -0.078427888 0.18799996 8552055
0.68882298 -0.080207638 0.18699998 8683641
0.68895936 -0.081992663 0.18599993 8749434
0.68950486 -0.084614493 0.18199998 8749434
0.69005036 -0.087257259 0.17799997 8815227
0.69059581 -0.089920916 0.17399997 8815227
0.69114131 -0.092605509 0.16999996 8552055
0.69182318 -0.095598631 0.16499996 7038816
0.68905145 0.07069321 0.17399997 7698032
0.68851644 0.069201976 0.17799997 7566700
0.68824893 0.067699857 0.17999995 7632493
0.68811512 0.066189684 0.18099993 7632493
0.68784761 0.064705856 0.18299997 7698286
0.68784761 0.063185006 0.18299997 7698286
0.68784761 0.06166416 0.18299997 7764079
0.68784761 0.060143311 0.18299997 7764079
0.68784761 0.058622465 0.18299997 7829872
0.68784761 0.057101615 0.18299997 7829872
0.68784761 0.055580765 0.18299997 8027251
0.68784761 0.054059915 0.18299997 8158837
0.68784761 0.052539069 0.18299997 8093044
0.68784761 0.051018219 0.18299997 7961458
0.68771386 0.049544625 0.18399996 7961458
0.68771386 0.04802639 0.18399996 8028021
0.68717885 -0.063350059 0.18799996 8947591
0.68717885 -0.064857833 0.18799996 8750463
0.68717885 -0.066365622 0.18799996 8816256
0.68717885 -0.067873411 0.18799996 8750463
0.68717885 -0.069381185 0.18799996 8750463
0.68717885 -0.070888959 0.18799996 8684154
0.68717885 -0.072396748 0.18799996 8683641
0.68717885 -0.073904522 0.18799996 8749434
0.68717885 -0.075412311 0.18799996 8749434
0.68717885 -0.076920085 0.18799996 8683641
0.68717885 -0.078427888 0.18799996 8815227
0.6873126 -0.080207638 0.18699998 8815740
0.68744636 -0.081992663 0.18599993 8749947
0.68784761 -0.084337287 0.18299997 8815740
0.68851644 -0.087257259 0.17799997 8815740
0.68905145 -0.089920916 0.17399997 8749434
0.68958652 -0.092605509 0.16999996 8683641
0.69025528 -0.095598631 0.16499996 7104609
0.68763822 0.070682533 0.17299998 7763568
0.68711364 0.069188692 0.17699999 7632493
0.68672025 0.067699857 0.17999995 7632493
0.68658906 0.066189684 0.18099993 7632493
0.68645793 0.064684734 0.18199998 7698286
0.68645793 0.063161269 0.18199998 7764079
0.6863268 0.06166416 0.18299997 7764079
0.6863268 0.060143311 0.18299997 7764079
0.6863268 0.058622465 0.18299997 7829872
0.6863268 0.057101615 0.18299997 7829872
0.6863268 0.055580765 0.18299997 8093044
0.6863268 0.054059915 0.18299997 8158837
0.6863268 0.052539069 0.18299997 8093044
0.6863268 0.051018219 0.18299997 8027251
0.6863268 0.049497373 0.18299997 8027251
0.68619561 0.04802639 0.18399996 7699056
0.68567103 -0.063350059 0.18799996 8816005
0.68567103 -0.064857833 0.18799996 8750463
0.68567103 -0.066365622 0.18799996 8816256
0.68567103 -0.067873411 0.18799996 8750463
0.68567103 -0.069381185 0.18799996 8750463
0.68567103 -0.070888959 0.18799996 8684154
0.68567103 -0.072396748 0.18799996 8749434
0.68567103 -0.073904522 0.18799996 8749434
0.68567103 -0.075412311 0.18799996 8749434
0.68567103 -0.076920085 0.18799996 8683641
0.68567103 -0.078427888 0.18799996 8815227
0.68580222 -0.080207638 0.18699998 8815740
0.68593335 -0.081992663 0.18599993 8881533
0.6863268 -0.084337287 0.18299997 8815740
0.68685138 -0.086977445 0.17899996 8815740
0.68737596 -0.089638494 0.17499995 8749434
0.68803167 -0.092605509 0.16999996 8683641
0.68855625 -0.095310979 0.16599995 7301988
0.68621981 0.070671864 0.17199993 7763568
0.68570566 0.069175407 0.17599994 7566700
0.68532008 0.067683965 0.17899996 7632493
0.68519151 0.066171169 0.17999995 7632493
0.68493444 0.064684734 0.18199998 7698286
0.68493444 0.063161269 0.18199998 7764079
0.68493444 0.061637811 0.18199998 7764079
0.68493444 0.060114346 0.18199998 7764079
0.68480593 0.058622465 0.18299997 7829872
0.68480593 0.057101615 0.18299997 7961458
0.68480593 0.055580765 0.18299997 8093044
0.68480593 0.054059915 0.18299997 8158837
0.68480593 0.052539069 0.18299997 8158837
0.68480593 0.051018219 0.18299997 8027251
0.68480593 0.049497373 0.18299997 8027251
0.68480593 0.047976524 0.18299997 7829872
0.68429178 -0.063593291 0.18699998 8750212
0.68429178 -0.065103687 0.18699998 8816256
0.68416327 -0.066365622 0.18799996 8947842
0.68416327 -0.067873411 0.18799996 8881279
0.68416327 -0.069381185 0.18799996 8881279
0.68416327 -0.070888959 0.18799996 8684154
0.68416327 -0.072396748 0.18799996 8684154
0.68416327 -0.073904522 0.18799996 8749434
0.68416327 -0.075412311 0.18799996 8815227
0.68416327 -0.076920085 0.18799996 8815227
0.68416327 -0.078427888 0.18799996 8815740
0.68416327 -0.079935662 0.18799996 8815740
0.68442035 -0.081992663 0.18599993 8947326
0.68480593 -0.084337287 0.18299997 8881533
0.68532008 -0.086977445 0.17899996 8749947
0.68583417 -0.089638494 0.17499995 8749434
0.68634832 -0.092320465 0.17099994 8552055
0.68699098 -0.095310979 0.16599995 7499367
0.68479609 0.070661195 0.17099994 7698034
0.68429244 0.069162123 0.17499995 7632493
0.68391466 0.067668065 0.17799997 7632493
0.68366283 0.066171169 0.17999995 7698032
0.683411 0.064684734 0.18199998 7698032
0.683411 0.063161269 0.18199998 7698286
0.683411 0.061637811 0.18199998 7829872
0.683411 0.060114346 0.18199998 7829872
0.683411 0.058590889 0.18199998 7829872
0.68328506 0.057101615 0.18299997 7961458
0.683411 0.055543963 0.18199998 8093044
0.683411 0.054020502 0.18199998 8158837
0.68328506 0.052539069 0.18299997 8158837
0.68328506 0.051018219 0.18299997 8027251
0.68328506 0.049497373 0.18299997 8027251
0.68328506 0.047976524 0.18299997 7829870
0.68290734 -0.063836537 0.18599993 8618626
0.6827814 -0.065103687 0.18699998 8882306
0.6827814 -0.066614084 0.18699998 8948096
0.68265545 -0.067873411 0.18799996 8881533
0.68265545 -0.069381185 0.18799996 8881533
0.68265545 -0.070888959 0.18799996 8749947
0.68265545 -0.072396748 0.18799996 8749434
0.68265545 -0.073904522 0.18799996 8749434
0.68265545 -0.075412311 0.18799996 8749434
0.68265545 -0.076920085 0.18799996 8881020
0.68265545 -0.078427888 0.18799996 8947326
0.68265545 -0.079935662 0.18799996 8881533
0.6827814 -0.08171805 0.18699998 8947326
0.68315917 -0.08406008 0.18399996 8947326
0.68378878 -0.086977445 0.17899996 8749947
0.68429244 -0.089638494 0.17499995 8749434
0.68479609 -0.092320465 0.17099994 8486262
0.6854257 -0.095310979 0.16599995 7762539
0.68324393 0.070661195 0.17099994 7763827
0.68287396 0.069148839 0.17399997 7632493
0.6823808 0.067668065 0.17799997 7764079
0.68213415 0.066171169 0.17999995 7764079
0.68201083 0.064663604 0.18099993 7764079
0.68188757 0.063161269 0.18199998 7764079
0.68188757 0.061637811 0.18199998 7764079
0.68188757 0.060114346 0.18199998 7829872
0.68188757 0.058590889 0.18199998 7829872
0.68188757 0.057067424 0.18199998 7829872
0.68188757 0.055543963 0.18199998 7896435
0.68188757 0.054020502 0.18199998 7962228
0.68188757 0.05249704 0.18199998 8028021
0.68176425 0.051018219 0.18299997 8093044
0.68176425 0.049497373 0.18299997 8158837
0.68176425 0.047976524 0.18299997 7829870
0.68139434 -0.065349557 0.18599993 8948099
0.68139434 -0.066862561 0.18599993 9013889
0.68127102 -0.068124481 0.18699998 8947326
0.68114769 -0.069381185 0.18799996 8881533
0.68114769 -0.070888959 0.18799996 8749947
0.68114769 -0.072396748 0.18799996 8684154
0.68114769 -0.073904522 0.18799996 8684154
0.68114769 -0.075412311 0.18799996 8749947
0.68114769 -0.076920085 0.18799996 8815740
0.68114769 -0.078427888 0.18799996 8947326
0.68114769 -0.079935662 0.18799996 9078912
0.68127102 -0.08171805 0.18699998 9078912
0.68164092 -0.08406008 0.18399996 9078912
0.68213415 -0.086697616 0.17999995 8684154
0.6827507 -0.089638494 0.17499995 8749434
0.68324393 -0.092320465 0.17099994 8354676
0.68373716 -0.095023312 0.16699994 7762539
0.68181241 0.070650518 0.16999996 7961206
0.68132961 0.069148839 0.17399997 7698286
0.68084687 0.067668065 0.17799997 7764079
0.68072617 0.066152662 0.17899996 7764079
0.68048477 0.064663604 0.18099993 7829872
0.68048477 0.063137531 0.18099993 7764079
0.68036407 0.061637811 0.18199998 7764079
0.68036407 0.060114346 0.18199998 7633263
0.68036407 0.058590889 0.18199998 7633263
0.68036407 0.057067424 0.18199998 7633263
0.68036407 0.055543963 0.18199998 7699056
0.68036407 0.054020502 0.18199998 7896435
0.68024337 0.052539069 0.18299997 7962228
0.68024337 0.051018219 0.18299997 7962228
0.68024337 0.049497373 0.18299997 7962228
0.68024337 0.047976524 0.18299997 7830640
0.68024337 0.046455674 0.18299997 3487277
0.68000197 -0.059532918 0.18499994 4538943
0.67988133 -0.065349557 0.18599993 9079682
0.67976063 -0.066614084 0.18699998 9013889
0.67976063 -0.068124481 0.18699998 8948096
0.67963994 -0.069381185 0.18799996 8948096
0.67963994 -0.070888959 0.18799996 8815740
0.67963994 -0.072396748 0.18799996 8749947
0.67963994 -0.073904522 0.18799996 8684154
0.67951924 -0.075148173 0.18899995 8749947
0.67951924 -0.076653339 0.18899995 8881533
0.67963994 -0.078427888 0.18799996 9078912
0.67963994 -0.079935662 0.18799996 9078912
0.67963994 -0.081443451 0.18799996 8947326
0.68012267 -0.08406008 0.18399996 8947326
0.68060547 -0.086697616 0.17999995 8749434
0.68108827 -0.089356057 0.17599994 8683641
0.68157101 -0.092035405 0.17199993 8485238
0.6821745 -0.095023312 0.16699994 8024687
0.68025756 0.070650518 0.16999996 7961206
0.67978525 0.069148839 0.17399997 7633263
0.67943102 0.067652166 0.17699999 7633263
0.67919487 0.066152662 0.17899996 7829872
0.67895871 0.064663604 0.18099993 7764079
0.67895871 0.063137531 0.18099993 7764079
0.67884064 0.061637811 0.18199998 7764079
0.67884064 0.060114346 0.18199998 7764079
