# .PCD v0.7 - Point Cloud Data file format
VERSION 0.7
FIELDS x y z rgb
SIZE 4 4 4 4
TYPE F F F U
COUNT 1 1 1 1
WIDTH 1124
HEIGHT 1
VIEWPOINT 0 0 0 1 0 0 0
POINTS 1124
DATA ascii
0.81667697 0.046231125 0.14799994 10591897
0.81701189 0.044566337 0.14699996 11184036
0.81701189 0.042951412 0.14699996 11053220
0.81701189 0.041336492 0.14699996 10657692
0.81473225 0.047890689 0.14899993 10658460
0.81506461 0.046231125 0.14799994 10395288
0.81539696 0.044566337 0.14699996 10986657
0.81539696 0.042951412 0.14699996 10526106
0.81539696 0.041336492 0.14699996 10131348
0.81572932 0.039661251 0.14599997 10262934
0.81572932 0.038043715 0.14599997 10394520
0.81312257 0.049500383 0.14899993 10132118
0.81312257 0.047890689 0.14899993 10197911
0.8134523 0.046231125 0.14799994 11249829
0.8134523 0.044618815 0.14799994 10591897
0.8137821 0.042951412 0.14699996 10657179
0.8137821 0.041336492 0.14699996 11579564
0.8137821 0.039721571 0.14699996 11447978
0.81411183 0.038043715 0.14599997 10395288
0.81411183 0.036426183 0.14599997 10197911
0.81444156 0.033120338 0.14499998 10591897
0.81151289 0.051110078 0.14899993 9014664
0.81151289 0.049500383 0.14899993 9934996
0.81151289 0.047890689 0.14899993 9934996
0.81184 0.046231125 0.14799994 10132118
0.81184 0.044618815 0.14799994 10723483
0.81216717 0.042951412 0.14699996 10394518
0.81216717 0.041336492 0.14699996 10723483
0.81216717 0.039721571 0.14699996 10328725
0.81216717 0.03810665 0.14699996 11315874
0.81216717 0.036491729 0.14699996 11382437
0.81249428 0.034808647 0.14599997 10657690
0.81249428 0.033191111 0.14599997 10526104
0.81249428 0.031573575 0.14599997 10328725
0.81216717 0.030032039 0.14699996 10262932
0.8099032 0.052719772 0.14899993 5527382
0.8099032 0.051110078 0.14899993 8751239
0.8099032 0.049500383 0.14899993 9869203
0.8099032 0.047890689 0.14899993 9934996
0.8099032 0.046280995 0.14899993 10132118
0.81022769 0.044618815 0.14799994 10986655
0.81022769 0.043006506 0.14799994 11052448
0.81055224 0.041336492 0.14699996 10723483
0.81055224 0.039721571 0.14699996 10591897
0.81055224 0.03810665 0.14699996 11315620
0.81055224 0.036491729 0.14699996 11315620
0.81055224 0.034876805 0.14699996 10524823
0.81055224 0.033261884 0.14699996 10394005
0.81055224 0.031646963 0.14699996 10459798
0.81055224 0.030032039 0.14699996 10262932
0.8079716 0.052759193 0.14999998 6778219
0.80829352 0.051110078 0.14899993 8488069
0.80829352 0.049500383 0.14899993 9934486
0.80829352 0.047890689 0.14899993 10000279
0.80829352 0.046280995 0.14899993 9867923
0.80861539 0.044618815 0.14799994 10131348
0.80861539 0.043006506 0.14799994 10328212
0.80893731 0.041336492 0.14699996 11183521
0.80893731 0.039721571 0.14699996 11380900
0.80893731 0.03810665 0.14699996 10591897
0.80893731 0.036491729 0.14699996 11512486
0.80893731 0.034876805 0.14699996 11512999
0.80893731 0.033261884 0.14699996 11249314
0.80668378 0.052719772 0.14899993 6844014
0.80636448 0.05115211 0.14999998 8619655
0.80668378 0.049500383 0.14899993 9868950
0.80668378 0.047890689 0.14899993 9934743
0.80668378 0.046280995 0.14899993 9671314
0.80668378 0.044671297 0.14899993 9999762
0.80700308 0.043006506 0.14799994 10196626
0.80732238 0.041336492 0.14699996 11183521
0.80732238 0.039721571 0.14699996 11578279
0.80732238 0.03810665 0.14699996 10657177
0.80732238 0.036491729 0.14699996 11249314
0.80700308 0.034944966 0.14799994 11117728
0.80700308 0.033332657 0.14799994 10262419
0.80572593 0.022402763 0.15199995 10197909
0.80572593 0.020800907 0.15199995 10526358
0.80572593 0.019199051 0.15199995 10526358
0.80475742 0.052759193 0.14999998 7368559
0.80475742 0.05115211 0.14999998 8355454
0.8050741 0.049500383 0.14899993 9868693
0.8050741 0.047890689 0.14899993 9934486
0.8050741 0.046280995 0.14899993 9737107
0.8050741 0.044671297 0.14899993 9671567
0.8050741 0.043061603 0.14899993 9999760
0.80539078 0.0413942 0.14799994 10394772
0.80539078 0.039781891 0.14799994 10723737
0.80539078 0.038169581 0.14799994 10789017
0.80539078 0.036557276 0.14799994 11380900
0.80539078 0.034944966 0.14799994 10657179
0.80539078 0.033332657 0.14799994 10328214
0.80539078 0.031720348 0.14799994 10328214
0.80539078 0.030108038 0.14799994 10131348
0.8050741 0.028574344 0.14899993 10723737
0.8050741 0.026964646 0.14899993 10394772
0.80475742 0.0254388 0.14999998 10197393
0.80475742 0.023831718 0.14999998 10197393
0.80444074 0.022313699 0.15099996 10394772
0.80444074 0.020709228 0.15099996 10657944
0.80444074 0.01910476 0.15099996 10723483
0.80412406 0.017597195 0.15199995 10789530
0.80412406 0.015995339 0.15199995 10789530
0.8031503 0.052759193 0.14999998 9671824
0.8031503 0.05115211 0.14999998 8025719
0.80346441 0.049500383 0.14899993 9802383
0.80346441 0.047890689 0.14899993 9868176
0.80346441 0.046280995 0.14899993 9934739
0.80346441 0.044671297 0.14899993 9802381
0.80346441 0.043061603 0.14899993 9999760
0.80377847 0.0413942 0.14799994 10263186
0.80377847 0.039781891 0.14799994 10592151
0.80346441 0.038232516 0.14899993 10723737
0.80377847 0.036557276 0.14799994 10855069
0.80346441 0.035013124 0.14899993 10591899
0.80346441 0.03340343 0.14899993 10986657
0.80346441 0.031793732 0.14899993 10657692
0.80346441 0.030184038 0.14899993 10789278
0.80346441 0.028574344 0.14899993 10591897
0.8031503 0.027045876 0.14999998 10592151
0.8031503 0.0254388 0.14999998 10263186
0.8028363 0.023918167 0.15099996 10263186
0.8028363 0.022313699 0.15099996 10460052
0.8028363 0.020709228 0.15099996 10328979
0.8028363 0.01910476 0.15099996 10526358
0.80252218 0.017597195 0.15199995 10723737
0.80252218 0.015995339 0.15199995 10657944
0.80154324 0.052759193 0.14999998 10000532
0.80154324 0.05115211 0.14999998 8223351
0.80154324 0.049545027 0.14999998 9802383
0.80154324 0.047937945 0.14999998 9868176
0.80154324 0.046330862 0.14999998 9999762
0.80154324 0.044723783 0.14999998 9802381
0.80185473 0.043061603 0.14899993 9999760
0.80185473 0.041451905 0.14899993 10131346
0.80185473 0.039842211 0.14899993 10328725
0.80185473 0.038232516 0.14899993 10065553
0.80185473 0.036622822 0.14899993 10131600
0.80185473 0.035013124 0.14899993 11512738
0.80185473 0.03340343 0.14899993 6642775
0.80185473 0.031793732 0.14899993 5853259
0.80185473 0.030184038 0.14899993 11380384
0.80154324 0.028652959 0.14999998 10394259
0.80154324 0.027045876 0.14999998 10591638
0.8012318 0.025522638 0.15099996 11052700
0.8012318 0.023918167 0.15099996 10657942
0.80092037 0.022402763 0.15199995 10197391
0.80092037 0.020800907 0.15199995 10196880
0.80092037 0.019199051 0.15199995 10328466
0.80092037 0.017597195 0.15199995 10591638
0.80029744 0.011404492 0.15399998 10591384
0.79905164 0.0023168549 0.15799993 10000014
0.79993618 0.052759193 0.14999998 9670797
0.79993618 0.05115211 0.14999998 8881279
0.79993618 0.049545027 0.14999998 9868428
0.79993618 0.047937945 0.14999998 9868428
0.79993618 0.046330862 0.14999998 10000014
0.79993618 0.044723783 0.14999998 9868174
0.80024505 0.043061603 0.14899993 9999760
0.80024505 0.041451905 0.14899993 9999760
0.80024505 0.039842211 0.14899993 10131346
0.80024505 0.038232516 0.14899993 10065553
0.80024505 0.036622822 0.14899993 8223088
0.80024505 0.035013124 0.14899993 9538176
0.80024505 0.03340343 0.14899993 5919563
0.80024505 0.031793732 0.14899993 6248528
0.79993618 0.030260041 0.14999998 8747633
0.79993618 0.028652959 0.14999998 9340799
0.7996273 0.027127102 0.15099996 9671565
0.79931849 0.025606476 0.15199995 9934991
0.79931849 0.02400462 0.15199995 9934991
0.79931849 0.022402763 0.15199995 10197391
0.79931849 0.020800907 0.15199995 10197393
0.79931849 0.019199051 0.15199995 10328979
0.79900968 0.017694097 0.15299994 10657431
0.79870081 0.013001122 0.15399998 10459798
0.79839194 0.011511847 0.15499997 10459798
0.79839194 0.0099178255 0.15499997 10328466
0.79808313 0.0084363967 0.15599996 10394259
0.79777431 0.0069601908 0.15699995 10328466
0.79777431 0.0053713992 0.15699995 10592151
0.79832911 0.052759193 0.14999998 9670797
0.79832911 0.05115211 0.14999998 8815486
0.79832911 0.049545027 0.14999998 9868944
0.79832911 0.047937945 0.14999998 9868428
0.79832911 0.046330862 0.14999998 10000014
0.79832911 0.044723783 0.14999998 9868174
0.79832911 0.0431167 0.14999998 9999760
0.79832911 0.041509617 0.14999998 9999760
0.79832911 0.039902538 0.14999998 9999760
0.79832911 0.038295455 0.14999998 10591897
0.79863536 0.036622822 0.14899993 7038814
0.79832911 0.03508129 0.14999998 11906978
0.79832911 0.033474207 0.14999998 7564136
0.79832911 0.031867124 0.14999998 6379862
0.79832911 0.030260041 0.14999998 11314074
0.79832911 0.028652959 0.14999998 7169630
0.79802287 0.027127102 0.15099996 9934991
0.79802287 0.025522638 0.15099996 9672076
0.79771662 0.02400462 0.15199995 9606283
0.79771662 0.022402763 0.15199995 10395797
0.79771662 0.020800907 0.15199995 9869196
0.79771662 0.019199051 0.15199995 10066575
0.79741043 0.017694097 0.15299994 11052700
0.79741043 0.016094856 0.15299994 10394770
0.79679799 0.011511847 0.15499997 10197391
0.79649174 0.010027796 0.15599996 10000782
0.79618549 0.008548975 0.15699995 10132368
0.79672199 0.052759193 0.14999998 9671565
0.79641837 0.051194139 0.15099996 8553084
0.79672199 0.049545027 0.14999998 10066323
0.79672199 0.047937945 0.14999998 9737358
0.79672199 0.046330862 0.14999998 9737358
0.79641837 0.044776261 0.15099996 9737358
0.79672199 0.0431167 0.14999998 9999760
0.79672199 0.041509617 0.14999998 9868174
0.79672199 0.039902538 0.14999998 9670795
0.79672199 0.038295455 0.14999998 10197139
0.79672199 0.036688372 0.14999998 8419699
0.79672199 0.03508129 0.14999998 9011582
0.79672199 0.033474207 0.14999998 6907491
0.79672199 0.031867124 0.14999998 6183768
0.79672199 0.030260041 0.14999998 7894125
0.79511493 0.052759193 0.14999998 9671565
0.79511493 0.05115211 0.14999998 8553084
0.79511493 0.049545027 0.14999998 10066323
0.79511493 0.047937945 0.14999998 9737358
0.79511493 0.046330862 0.14999998 9737358
0.79481393 0.044776261 0.15099996 9671565
0.79511493 0.0431167 0.14999998 9737358
0.79511493 0.041509617 0.14999998 9737358
0.79511493 0.039902538 0.14999998 9736588
0.79511493 0.038295455 0.14999998 9802381
0.79511493 0.036688372 0.14999998 7959664
0.79511493 0.03508129 0.14999998 7762285
0.79511493 0.033474207 0.14999998 7631982
0.79511493 0.031867124 0.14999998 5987157
0.79350781 0.052759193 0.14999998 9605774
0.79350781 0.05115211 0.14999998 8683900
0.79350781 0.049545027 0.14999998 10132116
0.79350781 0.047937945 0.14999998 9868944
0.79350781 0.046330862 0.14999998 9868944
0.79320943 0.044776261 0.15099996 9868944
0.79320943 0.043171793 0.15099996 9999760
0.79350781 0.041509617 0.14999998 9999760
0.79350781 0.039902538 0.14999998 9670795
0.79350781 0.038295455 0.14999998 9736588
0.79350781 0.036688372 0.14999998 9210498
0.79350781 0.03508129 0.14999998 8947326
0.79350781 0.033474207 0.14999998 8684152
0.79350781 0.031867124 0.14999998 8486773
0.79190075 0.052759193 0.14999998 9539981
0.79190075 0.05115211 0.14999998 8684672
0.79190075 0.049545027 0.14999998 9868946
0.79190075 0.047937945 0.14999998 9934737
0.79190075 0.046330862 0.14999998 9934737
0.791605 0.044776261 0.15099996 9737358
0.791605 0.043171793 0.15099996 9999760
0.79190075 0.041509617 0.14999998 9999760
0.79190075 0.039902538 0.14999998 9670795
0.79190075 0.038295455 0.14999998 9802381
0.79190075 0.036688372 0.14999998 9539209
0.79190075 0.03508129 0.14999998 9539463
0.79190075 0.033474207 0.14999998 9473157
0.79029369 0.052759193 0.14999998 9671567
0.79029369 0.05115211 0.14999998 8553086
0.79029369 0.049545027 0.14999998 9671824
0.79029369 0.047937945 0.14999998 9803410
0.79029369 0.046330862 0.14999998 9671824
0.79029369 0.044723783 0.14999998 9671567
0.7900005 0.043171793 0.15099996 9868176
0.7900005 0.041567322 0.15099996 9868176
0.7900005 0.039962858 0.15099996 9670795
0.79029369 0.038295455 0.14999998 9868174
0.79029369 0.036688372 0.14999998 9670795
0.79029369 0.03508129 0.14999998 9736842
0.7900005 0.03354498 0.15099996 9275778
0.78868657 0.054366276 0.14999998 10132116
0.78897715 0.052719772 0.14899993 9540238
0.78868657 0.05115211 0.14999998 8092535
0.78868657 0.049545027 0.14999998 9474445
0.78897715 0.047890689 0.14899993 9606031
0.78868657 0.046330862 0.14999998 9606031
0.78868657 0.044723783 0.14999998 9605774
0.78839606 0.043171793 0.15099996 9671567
0.78839606 0.041567322 0.15099996 9737360
0.78839606 0.039962858 0.15099996 9539979
0.78868657 0.038295455 0.14999998 9934737
0.78868657 0.036688372 0.14999998 9802381
0.78839606 0.035149448 0.15099996 9736588
0.78839606 0.03354498 0.15099996 9275778
0.78736746 0.052719772 0.14899993 9408395
0.78736746 0.051110078 0.14899993 8289914
0.78736746 0.049500383 0.14899993 9408652
0.78736746 0.047890689 0.14899993 9540238
0.78707951 0.046330862 0.14999998 9540238
0.78707951 0.044723783 0.14999998 9605774
0.78707951 0.0431167 0.14999998 9671567
0.78707951 0.041509617 0.14999998 9671567
0.78707951 0.039902538 0.14999998 9539981
0.78707951 0.038295455 0.14999998 9737360
0.78707951 0.036688372 0.14999998 9802383
0.78707951 0.03508129 0.14999998 9736842
0.78707951 0.033474207 0.14999998 9604743
0.78604305 0.054292664 0.14799994 10197909
0.78575778 0.052719772 0.14899993 9474186
0.78575778 0.051110078 0.14899993 8487293
0.78575778 0.049500383 0.14899993 9474188
0.78575778 0.047890689 0.14899993 9606031
0.78575778 0.046280995 0.14899993 9803410
0.78575778 0.044671297 0.14899993 9671567
0.78547245 0.0431167 0.14999998 9737360
0.78547245 0.041509617 0.14999998 9671567
0.78547245 0.039902538 0.14999998 9539981
0.78547245 0.038295455 0.14999998 9737360
0.78547245 0.036688372 0.14999998 9737360
0.78547245 0.03508129 0.14999998 9934991
0.78471345 0.054255866 0.14699996 10066580
0.78471345 0.052640945 0.14699996 9408393
0.78443074 0.051068049 0.14799994 8551801
0.78414804 0.049500383 0.14899993 9868174
0.78414804 0.047890689 0.14899993 9737360
0.78414804 0.046280995 0.14899993 9934739
0.78414804 0.044671297 0.14899993 9671567
0.78414804 0.043061603 0.14899993 9868946
0.78386533 0.041509617 0.14999998 9934739
0.78414804 0.039842211 0.14899993 9605774
0.78414804 0.038232516 0.14899993 9868946
0.78414804 0.036622822 0.14899993 9737360
0.78414804 0.035013124 0.14899993 10000784
0.78393883 0.05739098 0.14399993 9738385
0.78365874 0.055802409 0.14499998 9804178
0.78337866 0.05421906 0.14599997 9869971
0.78309858 0.052640945 0.14699996 9342859
0.78281844 0.051068049 0.14799994 8289142
0.78281844 0.04945574 0.14799994 10065553
0.78253835 0.047890689 0.14899993 9671565
0.78253835 0.046280995 0.14899993 9868944
0.78253835 0.044671297 0.14899993 9671567
0.78253835 0.043061603 0.14899993 9868946
0.78253835 0.041451905 0.14899993 9934739
0.78253835 0.039842211 0.14899993 9671567
0.78253835 0.038232516 0.14899993 9868946
0.78253835 0.036622822 0.14899993 9737360
0.78253835 0.035013124 0.14899993 10131600
0.78287101 0.057327826 0.14199996 5722702
0.78231609 0.055768214 0.14399993 6052180
0.78176111 0.05421906 0.14599997 5657422
0.78148365 0.052640945 0.14699996 5592401
0.78148365 0.05102602 0.14699996 7829620
0.78092867 0.049500383 0.14899993 10000530
0.78092867 0.047890689 0.14899993 9737358
0.78092867 0.046280995 0.14899993 9868944
0.78092867 0.044671297 0.14899993 9671565
0.78092867 0.043061603 0.14899993 9934739
0.78092867 0.041451905 0.14899993 9934739
0.78092867 0.039842211 0.14899993 9671567
0.78092867 0.038232516 0.14899993 9868946
0.78092867 0.036622822 0.14899993 9868946
0.78092867 0.035013124 0.14899993 10000530
0.78124309 0.057327826 0.14199996 5787979
0.78069329 0.055768214 0.14399993 5854801
0.78041846 0.054182261 0.14499998 5591629
0.77986872 0.052640945 0.14699996 5460562
0.77986872 0.05102602 0.14699996 7829620
0.77931899 0.049500383 0.14899993 10066323
0.77931899 0.047890689 0.14899993 9671565
0.77931899 0.046280995 0.14899993 9737358
0.77931899 0.044671297 0.14899993 9671565
0.77931899 0.043061603 0.14899993 9868944
0.77931899 0.041451905 0.14899993 9934737
0.77931899 0.039842211 0.14899993 9671567
0.77931899 0.038232516 0.14899993 9934739
0.77931899 0.036622822 0.14899993 9868946
0.77931899 0.035013124 0.14899993 10000530
0.77961504 0.057327826 0.14199996 5459784
0.77934277 0.055734027 0.14299995 5526090
0.77879828 0.054182261 0.14499998 5460297
0.77825379 0.05102602 0.14699996 7829367
0.77798152 0.04945574 0.14799994 10000784
0.77770925 0.047890689 0.14899993 9671819
0.77770925 0.046280995 0.14899993 9737612
0.77770925 0.044671297 0.14899993 9605772
0.77770925 0.043061603 0.14899993 9737358
0.77770925 0.041451905 0.14899993 9868944
0.77770925 0.039842211 0.14899993 9737358
0.77770925 0.038232516 0.14899993 9934737
0.77770925 0.036622822 0.14899993 9868174
0.77770925 0.035013124 0.14899993 10131346
0.77770925 0.03340343 0.14899993 10065294
0.77798706 0.05569984 0.14199996 5263688
0.77744782 0.054145455 0.14399993 4934723
0.77663887 0.05102602 0.14699996 7501172
0.77636921 0.04945574 0.14799994 9804178
0.77609956 0.047890689 0.14899993 9737358
0.77609956 0.046280995 0.14899993 9737358
0.77609956 0.044671297 0.14899993 9671565
0.77609956 0.043061603 0.14899993 9737358
0.77609956 0.041451905 0.14899993 9868944
0.77609956 0.039842211 0.14899993 9737358
0.77609956 0.038232516 0.14899993 9934737
0.77609956 0.036622822 0.14899993 9737358
0.77609956 0.035013124 0.14899993 10131346
0.77609956 0.03340343 0.14899993 9933708
0.77635908 0.05569984 0.14199996 5132102
0.77582502 0.054145455 0.14399993 4934723
0.77529097 0.050983991 0.14599997 7501172
0.77475691 0.04945574 0.14799994 9804178
0.77448988 0.047890689 0.14899993 9802381
0.77448988 0.046280995 0.14899993 9868174
0.77448988 0.044671297 0.14899993 9671565
0.77448988 0.043061603 0.14899993 9539979
0.77448988 0.041451905 0.14899993 9868944
0.77448988 0.039842211 0.14899993 9737360
0.77448988 0.038232516 0.14899993 10000532
0.77448988 0.036622822 0.14899993 9802381
0.77448988 0.035013124 0.14899993 10065553
0.77446669 0.054108653 0.14299995 4868930
0.77367342 0.050983991 0.14599997 7632758
0.7731446 0.04945574 0.14799994 10132116
0.7728802 0.047890689 0.14899993 9868174
0.77261579 0.046330862 0.14999998 9999760
0.77261579 0.044723783 0.14999998 9670795
0.7728802 0.043061603 0.14899993 9670795
0.7728802 0.041451905 0.14899993 10000530
0.7728802 0.039842211 0.14899993 9671565
0.7728802 0.038232516 0.14899993 10000530
0.7728802 0.036622822 0.14899993 9802381
0.7728802 0.035013124 0.14899993 10065553
0.77284133 0.054108653 0.14299995 4803137
0.77205592 0.050983991 0.14599997 9868950
0.7715323 0.04945574 0.14799994 10132116
0.77127051 0.047890689 0.14899993 9868174
0.77100873 0.046330862 0.14999998 9999760
0.77100873 0.044723783 0.14999998 9670795
0.77100873 0.0431167 0.14999998 9670795
0.77100873 0.041509617 0.14999998 10066323
0.77100873 0.039902538 0.14999998 9671565
0.77127051 0.038232516 0.14899993 10000530
0.77127051 0.036622822 0.14899993 9868174
0.77127051 0.035013124 0.14899993 10131346
0.77147514 0.054071851 0.14199996 4737344
0.77043837 0.050983991 0.14599997 10000536
0.76966083 0.049500383 0.14899993 10197909
0.76966083 0.047890689 0.14899993 9999760
0.76940161 0.046330862 0.14999998 9999760
0.76940161 0.044723783 0.14999998 9999760
0.76940161 0.0431167 0.14999998 9736588
0.76940161 0.041509617 0.14999998 10066323
0.76940161 0.039902538 0.14999998 9868944
0.76940161 0.038295455 0.14999998 10000530
0.76940161 0.036688372 0.14999998 9868944
0.76940161 0.03508129 0.14999998 10197139
0.76959056 0.054108653 0.14299995 4605504
0.76856428 0.05102602 0.14699996 10066329
0.76805115 0.049500383 0.14899993 10198163
0.76779455 0.047937945 0.14999998 10000014
0.76779455 0.046330862 0.14999998 10000014
0.76753795 0.044776261 0.15099996 9868174
0.76753795 0.043171793 0.15099996 9605772
0.76753795 0.041567322 0.15099996 10066323
0.76753795 0.039962858 0.15099996 9868944
0.76779455 0.038295455 0.14999998 10000530
0.76779455 0.036688372 0.14999998 9934737
0.76779455 0.03508129 0.14999998 10132116
0.7679652 0.054108653 0.14299995 4605504
0.76694936 0.05102602 0.14699996 10132122
0.7664414 0.049500383 0.14899993 10395542
0.76618743 0.047937945 0.14999998 9868428
0.76593351 0.046380732 0.15099996 10000014
0.76567954 0.044828743 0.15199995 9868174
0.76567954 0.043226887 0.15199995 9474186
0.76567954 0.04162503 0.15199995 9737358
0.76593351 0.039962858 0.15099996 9737358
0.76593351 0.038358387 0.15099996 10000530
0.76593351 0.036753919 0.15099996 9737358
0.76593351 0.035149448 0.15099996 10066323
0.76659119 0.054071851 0.14199996 4539965
0.76558578 0.050983991 0.14599997 10395037
0.76483172 0.049500383 0.14899993 10197909
0.76458037 0.047937945 0.14999998 9671565
0.76432902 0.046380732 0.15099996 9868944
0.76407766 0.044828743 0.15199995 9737358
0.76407766 0.043226887 0.15199995 9670795
0.76407766 0.04162503 0.15199995 9868944
0.76407766 0.040023178 0.15199995 9737358
0.76407766 0.038421322 0.15199995 10000530
0.76432902 0.036753919 0.15099996 9868944
0.76432902 0.035149448 0.15099996 10000530
0.76432902 0.03354498 0.15099996 10854810
0.76496315 0.054071851 0.14199996 4539965
0.76396823 0.050983991 0.14599997 10395037
0.76322204 0.049500383 0.14899993 10328725
0.76297331 0.047937945 0.14999998 9671565
0.76272452 0.046380732 0.15099996 9737358
0.76247579 0.044828743 0.15199995 9737358
0.76247579 0.043226887 0.15199995 9474186
0.76247579 0.04162503 0.15199995 9868944
0.76247579 0.040023178 0.15199995 9737358
0.76247579 0.038421322 0.15199995 10000530
0.76247579 0.036819465 0.15199995 9868944
0.76247579 0.035217609 0.15199995 10000784
0.76247579 0.033615753 0.15199995 10657431
0.76333517 0.054071851 0.14199996 4539965
0.76235068 0.050983991 0.14599997 10132118
0.7616123 0.049500383 0.14899993 10263702
0.76136619 0.047937945 0.14999998 9671565
0.76112008 0.046380732 0.15099996 9671565
0.76087397 0.044828743 0.15199995 9737358
0.76087397 0.043226887 0.15199995 9539979
0.76087397 0.04162503 0.15199995 9868693
0.76087397 0.040023178 0.15199995 9671567
0.76087397 0.038421322 0.15199995 10066325
0.76087397 0.036819465 0.15199995 9934737
0.76087397 0.035217609 0.15199995 10000530
0.76170719 0.054071851 0.14199996 4539965
0.76073313 0.050983991 0.14599997 10526876
0.76024616 0.04945574 0.14799994 10197909
0.75975913 0.047937945 0.14999998 9671565
0.75951558 0.046380732 0.15099996 9671565
0.7592721 0.044828743 0.15199995 9737360
0.7592721 0.043226887 0.15199995 9539981
0.7592721 0.04162503 0.15199995 9868693
0.7592721 0.040023178 0.15199995 9671567
0.7592721 0.038421322 0.15199995 10066325
0.7592721 0.036819465 0.15199995 9934737
0.7592721 0.035217609 0.15199995 10262932
0.76007921 0.054071851 0.14199996 4408379
0.75911564 0.050983991 0.14599997 10197911
0.75863385 0.04945574 0.14799994 10395288
0.75815201 0.047937945 0.14999998 9671565
0.75791115 0.046380732 0.15099996 9605004
0.75767022 0.044828743 0.15199995 9736590
0.75767022 0.043226887 0.15199995 9408395
0.75767022 0.04162503 0.15199995 10000532
0.75767022 0.040023178 0.15199995 9606031
0.75767022 0.038421322 0.15199995 10066582
0.75767022 0.036819465 0.15199995 9803408
0.75767022 0.035217609 0.15199995 10000530
0.75749809 0.050983991 0.14599997 10132118
0.75702155 0.04945574 0.14799994 10197909
0.75654495 0.047937945 0.14999998 9539979
0.75654495 0.046330862 0.14999998 9276807
0.75630665 0.044776261 0.15099996 9671565
0.75606835 0.043226887 0.15199995 9408395
0.75606835 0.04162503 0.15199995 10131348
0.75606835 0.040023178 0.15199995 9671567
0.75606835 0.038421322 0.15199995 10132118
0.75606835 0.036819465 0.15199995 9868944
0.75606835 0.035217609 0.15199995 9934737
0.75606835 0.033615753 0.15199995 10788763
0.75588053 0.050983991 0.14599997 10197911
0.75564492 0.049411099 0.14699996 10197911
0.75493789 0.047937945 0.14999998 9605772
0.75493789 0.046330862 0.14999998 9539209
0.75470221 0.044776261 0.15099996 9868174
0.75446653 0.043226887 0.15199995 9605002
0.75446653 0.04162503 0.15199995 10197141
0.75446653 0.040023178 0.15199995 9605774
0.75446653 0.038421322 0.15199995 10000532
0.75446653 0.036819465 0.15199995 9737360
0.75446653 0.035217609 0.15199995 9934737
0.75446653 0.033615753 0.15199995 10723224
0.75426304 0.050983991 0.14599997 10197911
0.75379694 0.04945574 0.14799994 10263704
0.75333077 0.047937945 0.14999998 9868174
0.75333077 0.046330862 0.14999998 9539209
0.75286466 0.044828743 0.15199995 9999760
0.75286466 0.043226887 0.15199995 9605002
0.75286466 0.04162503 0.15199995 10065555
0.7526316 0.040083498 0.15299994 9605774
0.75286466 0.038421322 0.15199995 9868944
0.75286466 0.036819465 0.15199995 9671565
0.7526316 0.035285767 0.15299994 9737358
0.7526316 0.033686526 0.15299994 10854810
0.75264549 0.050983991 0.14599997 10263704
0.75218463 0.04945574 0.14799994 10395290
0.75172371 0.047937945 0.14999998 9868174
0.75149328 0.046380732 0.15099996 9407623
0.75126284 0.044828743 0.15199995 9868174
0.75126284 0.043226887 0.15199995 9605002
0.75103235 0.041682739 0.15299994 10196888
0.75103235 0.040083498 0.15299994 9736590
0.75126284 0.038421322 0.15199995 9737358
0.75126284 0.036819465 0.15199995 9605772
0.75126284 0.035217609 0.15199995 9671565
0.75126284 0.033615753 0.15199995 10789015
0.75102794 0.050983991 0.14599997 10132375
0.75034446 0.049500383 0.14899993 10461081
0.75011665 0.047937945 0.14999998 9671565
0.74988878 0.046380732 0.15099996 9145221
0.74966097 0.044828743 0.15199995 9474186
0.74966097 0.043226887 0.15199995 9408393
0.74943316 0.041682739 0.15299994 10328474
0.74943316 0.040083498 0.15299994 9604751
0.74966097 0.038421322 0.15199995 9737360
0.74966097 0.036819465 0.15199995 9539981
0.74943316 0.035285767 0.15299994 9737358
0.74943316 0.033686526 0.15299994 11052187
0.74941039 0.050983991 0.14599997 10000536
0.74873477 0.049500383 0.14899993 10329752
0.74828434 0.047985204 0.15099996 9539979
0.74805909 0.046430599 0.15199995 9145221
0.74805909 0.044828743 0.15199995 9408393
0.74783391 0.04328198 0.15299994 9276807
0.74783391 0.041682739 0.15299994 10065302
0.74783391 0.040083498 0.15299994 9538958
0.74783391 0.038484253 0.15299994 9868946
0.74783391 0.036885012 0.15299994 9539981
0.74783391 0.035285767 0.15299994 9737358
0.74783391 0.033686526 0.15299994 10920601
0.74757028 0.05102602 0.14699996 10000536
0.74712509 0.049500383 0.14899993 10198166
0.74667984 0.047985204 0.15099996 9408650
0.74645722 0.046430599 0.15199995 9079428
0.74623466 0.044881225 0.15299994 9605772
0.74623466 0.04328198 0.15299994 9013635
0.74601203 0.041740447 0.15399998 9473935
0.74601203 0.040143821 0.15399998 9474188
0.74623466 0.038484253 0.15299994 9737360
0.74623466 0.036885012 0.15299994 9539981
0.74623466 0.035285767 0.15299994 9868174
0.74623466 0.033686526 0.15299994 10920601
0.74595535 0.05102602 0.14699996 9803410
0.74529541 0.049545027 0.14999998 10066580
0.7448554 0.048032455 0.15199995 9408650
0.7446354 0.046480469 0.15299994 9013635
0.7444154 0.044933707 0.15399998 9408393
0.7444154 0.043337077 0.15399998 6513503
0.7444154 0.041740447 0.15399998 5394769
0.7444154 0.040143821 0.15399998 7763827
0.7444154 0.038547192 0.15399998 9474445
0.7444154 0.036950562 0.15399998 9474445
0.7444154 0.035353933 0.15399998 9868174
0.7446354 0.033686526 0.15299994 11051417
0.74434042 0.05102602 0.14699996 9803410
0.74368829 0.049545027 0.14999998 9869201
0.74303615 0.04807971 0.15299994 9342857
0.74281877 0.046530336 0.15399998 8947844
0.74281877 0.044933707 0.15399998 9276809
0.74260139 0.043392174 0.15499997 4473667
0.74260139 0.041798156 0.15499997 4276547
0.74260139 0.040204141 0.15499997 5263440
0.74281877 0.038547192 0.15399998 9474186
0.74281877 0.036950562 0.15399998 9539979
0.74281877 0.035353933 0.15399998 9868174
0.74281877 0.033757303 0.15399998 11051417
0.74251074 0.051068049 0.14799994 9738387
0.74186647 0.049589667 0.15099996 10987682
0.74122214 0.048126966 0.15399998 9342857
0.74122214 0.046530336 0.15399998 8947074
0.74100739 0.044986188 0.15499997 9407625
0.74100739 0.043392174 0.15499997 3551797
0.74100739 0.041798156 0.15499997 4078143
0.74100739 0.040204141 0.15499997 4408384
0.74122214 0.038547192 0.15399998 9474186
0.74122214 0.036950562 0.15399998 9474186
0.74122214 0.035353933 0.15399998 9933454
0.74122214 0.033757303 0.15399998 10985626
0.74089843 0.051068049 0.14799994 10198938
0.74026197 0.049589667 0.15099996 11250854
0.73962551 0.048126966 0.15399998 9342857
0.73941338 0.046580207 0.15499997 8947074
0.73941338 0.044986188 0.15499997 9276039
0.73941338 0.043392174 0.15499997 3288625
0.73941338 0.041798156 0.15499997 3749174
0.73941338 0.040204141 0.15499997 5658449
0.73941338 0.038610123 0.15499997 9342857
0.73962551 0.036950562 0.15399998 9408650
0.73962551 0.035353933 0.15399998 9933454
0.73962551 0.033757303 0.15399998 10920603
0.73907661 0.051110078 0.14899993 10329754
0.73844796 0.049634308 0.15199995 8750720
0.73802888 0.048126966 0.15399998 9474443
0.73781931 0.046580207 0.15499997 8947842
0.73781931 0.044986188 0.15499997 9079428
0.73781931 0.043392174 0.15499997 8487297
0.73781931 0.041798156 0.15499997 9539979
0.73781931 0.040204141 0.15499997 8947842
0.73781931 0.038610123 0.15499997 9474186
0.73802888 0.036950562 0.15399998 9474186
0.73802888 0.035353933 0.15399998 10130833
0.73746693 0.051110078 0.14899993 10066582
0.73684609 0.049634308 0.15199995 9276807
0.73643225 0.048126966 0.15399998 9539979
0.73622537 0.046580207 0.15499997 8947842
0.73622537 0.044986188 0.15499997 9211014
0.73622537 0.043392174 0.15499997 9013894
0.73622537 0.041798156 0.15499997 9999760
0.73622537 0.040204141 0.15499997 9341830
0.73622537 0.038610123 0.15499997 9671565
0.73622537 0.037016109 0.15499997 9474186
0.73643225 0.035353933 0.15399998 10196626
0.73585719 0.051110078 0.14899993 10132375
0.73524427 0.049634308 0.15199995 9276807
0.7346313 0.048174225 0.15499997 9539979
0.7346313 0.046580207 0.15499997 9079428
0.73442698 0.04503867 0.15599996 9408393
0.73442698 0.043447267 0.15599996 9145221
0.73442698 0.041855864 0.15599996 10328725
0.7346313 0.040204141 0.15499997 9605002
0.7346313 0.038610123 0.15499997 9802381
0.7346313 0.037016109 0.15499997 9736588
0.73483562 0.035353933 0.15399998 10065553
0.7340458 0.05115211 0.14999998 10067099
0.7334407 0.049678952 0.15299994 9211271
0.73303729 0.048174225 0.15499997 9539979
0.73283559 0.046630073 0.15599996 9145221
0.73263389 0.045091152 0.15699995 9605772
0.73283559 0.043447267 0.15599996 9276807
0.73283559 0.041855864 0.15599996 10197139
0.73303729 0.040204141 0.15499997 9474186
0.73303729 0.038610123 0.15499997 9671565
0.73303729 0.037016109 0.15499997 9605772
0.73303729 0.03542209 0.15499997 10065553
0.73243874 0.05115211 0.14999998 9935766
0.73164237 0.049723595 0.15399998 9212041
0.73124421 0.048221476 0.15599996 9539979
0.73104513 0.046679944 0.15699995 9145221
0.73104513 0.045091152 0.15699995 9605772
0.73104513 0.043502361 0.15699995 9276807
0.73104513 0.041913569 0.15699995 10065553
0.73124421 0.040264461 0.15599996 9474186
0.73144329 0.038610123 0.15499997 9671565
0.73144329 0.037016109 0.15499997 9671565
0.73144329 0.03542209 0.15499997 10065553
0.73083162 0.05115211 0.14999998 9803927
0.73004574 0.049723595 0.15399998 9408650
0.72965276 0.048221476 0.15599996 9671565
0.72945631 0.046679944 0.15699995 9211014
0.72945631 0.045091152 0.15699995 9737358
0.72945631 0.043502361 0.15699995 9276807
0.72945631 0.041913569 0.15699995 9868946
0.72965276 0.040264461 0.15599996 9539981
0.72984928 0.038610123 0.15499997 9737360
0.72984928 0.037016109 0.15499997 9671567
0.72984928 0.03542209 0.15499997 9934737
0.72903073 0.051194139 0.15099996 10198685
0.72844911 0.049723595 0.15399998 8948099
0.72786754 0.048268732 0.15699995 9737358
0.72786754 0.046679944 0.15699995 9145478
0.72767365 0.04514363 0.15799993 9605772
0.72786754 0.043502361 0.15699995 9276807
0.72786754 0.041913569 0.15699995 9737360
0.72806138 0.040264461 0.15599996 9474188
0.72806138 0.038673058 0.15599996 9868946
0.72806138 0.037081655 0.15599996 9671567
0.72825527 0.03542209 0.15499997 10000530
0.72723496 0.051236168 0.15199995 10067099
0.72666121 0.049768239 0.15499997 8751490
0.72608751 0.048315987 0.15799993 9737358
0.72608751 0.046729811 0.15799993 9145478
0.72608751 0.04514363 0.15799993 9605772
0.72608751 0.043557454 0.15799993 9408393
0.72608751 0.041971277 0.15799993 9671565
0.72627872 0.040324781 0.15699995 9605774
0.72646999 0.038673058 0.15599996 9934737
0.72646999 0.037081655 0.15599996 9671565
0.72646999 0.035490252 0.15599996 10000530
0.72563314 0.051236168 0.15199995 10264478
0.7250672 0.049768239 0.15499997 8554111
0.72450131 0.048315987 0.15799993 9737360
0.72431266 0.046779681 0.15899998 9079685
0.72431266 0.045196116 0.15899998 9539979
0.72431266 0.043612551 0.15899998 9408393
0.72450131 0.041971277 0.15799993 9671565
0.72450131 0.040385101 0.15799993 9605772
0.72468996 0.038735993 0.15699995 9803408
0.72468996 0.037147202 0.15699995 9606029
0.72487861 0.035490252 0.15599996 9868944
0.72403127 0.051236168 0.15199995 10330271
0.72328717 0.049812879 0.15599996 8554111
0.72272909 0.048363246 0.15899998 9540238
0.72254312 0.046829548 0.15999997 9145478
0.72254312 0.045248598 0.15999997 9408650
0.72254312 0.043667648 0.15999997 9408650
0.72272909 0.04202899 0.15899998 9671565
0.72291517 0.040385101 0.15799993 9671565
0.72310114 0.038735993 0.15699995 9671822
0.72310114 0.037147202 0.15699995 9606029
0.72310114 0.03555841 0.15699995 9737358
0.72206259 0.051320225 0.15399998 10330271
0.72169578 0.049812879 0.15599996 8619904
0.72096217 0.048410498 0.15999997 9540238
0.72096217 0.046829548 0.15999997 9079687
0.72096217 0.045248598 0.15999997 9408652
0.72096217 0.043667648 0.15999997 9408652
0.72114557 0.04202899 0.15899998 9671567
0.72132897 0.040385101 0.15799993 9539979
0.72132897 0.038798925 0.15799993 9671822
0.72151238 0.037147202 0.15699995 10395288
0.72151238 0.03555841 0.15699995 9737358
0.72046596 0.051320225 0.15399998 10264478
0.71992356 0.04985752 0.15699995 8619904
0.71938121 0.048410498 0.15999997 9540238
0.71938121 0.046829548 0.15999997 9079687
0.71938121 0.045248598 0.15999997 9408652
0.71938121 0.043667648 0.15999997 9408652
0.71938121 0.042086694 0.15999997 9671824
0.71956199 0.040445425 0.15899998 9474445
0.71974277 0.038798925 0.15799993 9606029
0.71992356 0.037147202 0.15699995 10132116
0.71992356 0.03555841 0.15699995 9671565
0.7192257 0.05283802 0.15199995 7566965
0.71886933 0.051320225 0.15399998 10461857
0.71833479 0.04985752 0.15699995 8750720
0.71780026 0.048410498 0.15999997 9474445
0.71762204 0.046879418 0.16099995 8883078
0.71762204 0.04530108 0.16099995 9080457
0.71780026 0.043667648 0.15999997 9212043
0.71780026 0.042086694 0.15999997 9606031
0.71797842 0.040445425 0.15899998 9474443
0.71815664 0.038798925 0.15799993 9540236
0.71833479 0.037147202 0.15699995 10132370
0.71833479 0.03555841 0.15699995 9671819
0.71779943 0.052798606 0.15099996 7501942
0.7172727 0.051320225 0.15399998 10331041
0.71674597 0.04985752 0.15699995 8685181
0.71621931 0.048410498 0.15999997 9606029
0.71604371 0.046879418 0.16099995 8948871
0.71604371 0.04530108 0.16099995 9014664
0.71621931 0.043667648 0.15999997 9080457
0.71621931 0.042086694 0.15999997 9803410
0.71621931 0.040505748 0.15999997 9474443
0.71657044 0.038798925 0.15799993 9606283
0.71657044 0.037212748 0.15799993 10066577
0.71674597 0.03555841 0.15699995 9737612
0.71619493 0.052798606 0.15099996 7699321
0.71567607 0.051320225 0.15399998 10199455
0.71515721 0.04985752 0.15699995 8554111
0.71463835 0.048410498 0.15999997 9671822
0.71446538 0.046879418 0.16099995 8948871
0.71446538 0.04530108 0.16099995 9014664
0.71463835 0.043667648 0.15999997 9014664
0.71463835 0.042086694 0.15999997 9803410
0.71463835 0.040505748 0.15999997 9474443
0.71498424 0.038798925 0.15799993 9672076
0.71498424 0.037212748 0.15799993 10066577
0.71515721 0.03555841 0.15699995 9737612
0.71459049 0.052798606 0.15099996 7567735
0.71407944 0.051320225 0.15399998 10331041
0.71356845 0.04985752 0.15699995 8619134
0.7130574 0.048410498 0.15999997 9540236
0.71288705 0.046879418 0.16099995 9080457
0.71288705 0.04530108 0.16099995 9212043
0.7130574 0.043667648 0.15999997 9212043
0.7130574 0.042086694 0.15999997 9671567
0.7130574 0.040505748 0.15999997 9408652
0.71322775 0.038861863 0.15899998 9475213
0.7133981 0.037212748 0.15799993 10132370
0.7133981 0.035626572 0.15799993 9737612
0.71298599 0.052798606 0.15099996 7436149
0.71248281 0.051320225 0.15399998 10660006
0.71197963 0.04985752 0.15699995 8619388
0.71147645 0.048410498 0.15999997 9671822
0.71130872 0.046879418 0.16099995 9212043
0.71147645 0.045248598 0.15999997 9080457
0.71147645 0.043667648 0.15999997 9277836
0.71147645 0.042086694 0.15999997 9868176
0.71164417 0.040445425 0.15899998 9408652
0.7118119 0.038798925 0.15799993 9475213
0.7118119 0.037212748 0.15799993 10198163
0.71197963 0.03555841 0.15699995 9737612
0.71154666 0.052759193 0.14999998 7632758
0.71088618 0.051320225 0.15399998 10856615
0.71039087 0.04985752 0.15699995 8554365
0.70989549 0.048410498 0.15999997 9671822
0.70989549 0.046829548 0.15999997 9080457
0.70989549 0.045248598 0.15999997 9474445
0.70989549 0.043667648 0.15999997 9474445
0.70989549 0.042086694 0.15999997 9737360
0.7100606 0.040445425 0.15899998 9408652
0.7102257 0.038798925 0.15799993 9803408
0.7102257 0.037212748 0.15799993 11119265
0.7102257 0.035626572 0.15799993 9737612
0.7099396 0.052759193 0.14999998 7765114
0.70928955 0.051320225 0.15399998 10791592
0.70880204 0.04985752 0.15699995 8882560
0.70831454 0.048410498 0.15999997 11053475
0.70831454 0.046829548 0.15999997 9080457
0.70831454 0.045248598 0.15999997 9605774
0.70831454 0.043667648 0.15999997 9539981
0.70847702 0.04202899 0.15899998 9737360
0.70831454 0.040505748 0.15999997 10198166
0.70847702 0.038861863 0.15899998 9672076
0.70863956 0.037212748 0.15799993 11447460
0.70863956 0.035626572 0.15799993 9868428
0.70769292 0.051320225 0.15399998 10725799
0.70705336 0.049902163 0.15799993 8750974
0.70673358 0.048410498 0.15999997 10921889
0.70657372 0.046879418 0.16099995 9145480
0.70657372 0.04530108 0.16099995 9539981
0.70673358 0.043667648 0.15999997 9474188
0.70673358 0.042086694 0.15999997 9737358
0.70673358 0.040505748 0.15999997 10526874
0.7068935 0.038861863 0.15899998 9671822
0.7068935 0.037278298 0.15899998 11513253
0.70705336 0.035626572 0.15799993 9605256
0.70609629 0.051320225 0.15399998 10791592
0.70546722 0.049902163 0.15799993 8882306
0.70515263 0.048410498 0.15999997 9869203
0.70499539 0.046879418 0.16099995 9342859
0.70499539 0.04530108 0.16099995 9474192
0.70499539 0.043722741 0.16099995 9342606
0.70515263 0.042086694 0.15999997 9868944
0.70515263 0.040505748 0.15999997 10395545
0.70515263 0.038924795 0.15999997 9803408
0.70530993 0.037278298 0.15899998 11316644
0.70546722 0.035626572 0.15799993 9408647
0.70449966 0.051320225 0.15399998 10857385
0.70388103 0.049902163 0.15799993 8882306
0.70357168 0.048410498 0.15999997 9869203
0.703417 0.046879418 0.16099995 9342606
0.703417 0.04530108 0.16099995 9474192
0.703417 0.043722741 0.16099995 9145227
0.70357168 0.042086694 0.15999997 9737358
0.703417 0.040566068 0.16099995 10395545
0.70357168 0.038924795 0.15999997 9803662
0.70357168 0.037343845 0.15999997 11185058
0.70388103 0.035626572 0.15799993 9474440
0.70335919 0.052798606 0.15099996 7699321
0.70290303 0.051320225 0.15399998 10660006
0.70229483 0.049902163 0.15799993 8750722
0.70183867 0.048457757 0.16099995 9869203
0.70183867 0.046879418 0.16099995 9211020
0.70168662 0.045353558 0.16199994 9408399
0.70183867 0.043722741 0.16099995 9211020
0.70183867 0.042144403 0.16099995 9671824
0.70183867 0.040566068 0.16099995 10000530
0.70199072 0.038924795 0.15999997 9606026
0.70199072 0.037343845 0.15999997 10395542
0.70214278 0.035694733 0.15899998 9671819
0.70175475 0.052798606 0.15099996 7567737
0.7013064 0.051320225 0.15399998 10725801
0.70070869 0.049902163 0.15799993 8750722
0.70026034 0.048457757 0.16099995 10000789
0.70011091 0.046929285 0.16199994 9211020
0.70011091 0.045353558 0.16199994 9474192
0.70011091 0.043777835 0.16199994 9211020
0.70026034 0.042144403 0.16099995 9737358
0.70011091 0.040626388 0.16199994 10000530
0.70026034 0.03898773 0.16099995 9606026
0.70040977 0.037343845 0.15999997 10395542
0.70040977 0.035762895 0.15999997 9737612
0.70000345 0.05283802 0.15199995 7699323
0.69956297 0.051362254 0.15499997 10725801
0.69912249 0.049902163 0.15799993 8816258
0.69868201 0.048457757 0.16099995 10395547
0.6985352 0.046929285 0.16199994 9211273
0.69838834 0.04540604 0.16299993 9606031
0.69838834 0.043832928 0.16299993 9342859
0.6985352 0.042202111 0.16199994 9606029
0.6985352 0.040626388 0.16199994 10000530
0.69868201 0.03898773 0.16099995 9540233
0.69868201 0.037409391 0.16099995 10461335
0.69882882 0.035762895 0.15999997 9671819
0.69840157 0.05283802 0.15199995 7699323
0.69796896 0.051362254 0.15499997 10594215
0.69753629 0.049902163 0.15799993 8553341
0.69710368 0.048457757 0.16099995 10592924
0.6969595 0.046929285 0.16199994 9145480
0.69681525 0.04540604 0.16299993 9606031
0.69681525 0.043832928 0.16299993 10329752
0.69681525 0.042259816 0.16299993 9606029
0.69681525 0.040686708 0.16299993 10790557
0.69710368 0.03898773 0.16099995 9540233
0.69710368 0.037409391 0.16099995 10263702
0.69724786 0.035762895 0.15999997 9868944
0.69679976 0.05283802 0.15199995 7765116
0.69637489 0.051362254 0.15499997 10396836
0.69580853 0.049946807 0.15899998 8553341
0.69552535 0.048457757 0.16099995 10658717
0.69538373 0.046929285 0.16199994 9145480
0.69524217 0.04540604 0.16299993 9540238
0.69524217 0.043832928 0.16299993 10395288
0.69524217 0.042259816 0.16299993 9737358
0.69524217 0.040686708 0.16299993 11053729
0.69538373 0.039050661 0.16199994 9671819
0.69552535 0.037409391 0.16099995 10263702
0.69552535 0.035831053 0.16099995 9868944
0.69552535 0.034252714 0.16099995 4670781
0.69519788 0.05283802 0.15199995 7896700
0.69478089 0.051362254 0.15499997 10067869
0.69436395 0.049902163 0.15799993 8619134
0.69394702 0.048457757 0.16099995 10264731
0.69380802 0.046929285 0.16199994 9211273
0.69366902 0.04540604 0.16299993 9474445
0.69366902 0.043832928 0.16299993 10263702
0.69366902 0.042259816 0.16299993 9868944
0.69380802 0.040626388 0.16199994 11053729
0.69394702 0.03898773 0.16099995 9803662
0.69394702 0.037409391 0.16099995 10263702
0.69394702 0.035831053 0.16099995 9671565
0.69359601 0.05283802 0.15199995 7962493
0.69318688 0.051362254 0.15499997 10067869
0.69277775 0.049902163 0.15799993 8619134
0.69236869 0.048457757 0.16099995 9935766
0.69223231 0.046929285 0.16199994 9145480
0.69209594 0.04540604 0.16299993 9474445
0.69209594 0.043832928 0.16299993 10198166
0.69223231 0.042202111 0.16199994 9671822
0.69223231 0.040626388 0.16199994 10330006
0.69236869 0.03898773 0.16099995 9672076
0.69236869 0.037409391 0.16099995 10922143
0.69236869 0.035831053 0.16099995 9343111
0.69172662 0.052916855 0.15399998 7699321
0.69145912 0.051404282 0.15599996 9936283
0.69105786 0.049946807 0.15899998 8553341
0.6907903 0.048457757 0.16099995 10066582
0.69065654 0.046929285 0.16199994 9013894
0.69052279 0.04540604 0.16299993 9474445
0.69065654 0.043777835 0.16199994 10066580
0.69065654 0.042202111 0.16199994 9606029
0.69065654 0.040626388 0.16199994 10329752
0.6907903 0.03898773 0.16099995 9474440
0.6907903 0.037409391 0.16099995 11514023
0.69013 0.052916855 0.15399998 7895932
0.68973655 0.051446311 0.15699995 10330273
0.68934315 0.049991447 0.15999997 8553341
0.68921196 0.048457757 0.16099995 10066582
0.68908083 0.046929285 0.16199994 8948101
0.68908083 0.045353558 0.16199994 9474445
0.68908083 0.043777835 0.16199994 10132375
0.68908083 0.042202111 0.16199994 9606031
0.68908083 0.040626388 0.16199994 10658717
0.68921196 0.03898773 0.16099995 9606026
0.68921196 0.037409391 0.16099995 7105638
0.68814778 0.051446311 0.15699995 10921889
0.6877622 0.049991447 0.15999997 8421755
0.68750513 0.048505008 0.16199994 10000789
0.68750513 0.046929285 0.16199994 8750722
0.68750513 0.045353558 0.16199994 9474445
0.68750513 0.043777835 0.16199994 10198168
0.68750513 0.042202111 0.16199994 9606031
0.68750513 0.040626388 0.16199994 11514028
0.68763363 0.03898773 0.16099995 8948096
0.68763363 0.037409391 0.16099995 9079682
0.68668491 0.052995685 0.15599996 7632760
0.68643308 0.05148834 0.15799993 10658717
0.68592942 0.048505008 0.16199994 10461338
0.68592942 0.046929285 0.16199994 8882308
0.68592942 0.045353558 0.16199994 9408652
0.68592942 0.043777835 0.16199994 10856098
0.68592942 0.042202111 0.16199994 9606031
0.68592942 0.040626388 0.16199994 11711407
0.6860553 0.03898773 0.16099995 7368040
0.6849702 0.053035103 0.15699995 7698553
0.68472362 0.051530369 0.15899998 10527901
0.68423039 0.048552264 0.16299993 10461338
0.68435365 0.046929285 0.16199994 8948101
0.68423039 0.04540604 0.16299993 9540238
0.68435365 0.043777835 0.16199994 10461340
0.68423039 0.042259816 0.16299993 9671824
0.68435365 0.040626388 0.16199994 11579819
0.68447697 0.03898773 0.16099995 7762798
0.68350208 0.054587089 0.15599996 3618617
0.68326074 0.053074516 0.15799993 7238002
0.68301934 0.051572397 0.15999997 10791073
0.68265724 0.048552264 0.16299993 10000787
0.68265724 0.046979152 0.16299993 8948099
0.68265724 0.04540604 0.16299993 9540238
0.68265724 0.043832928 0.16299993 10395547
0.68265724 0.042259816 0.16299993 9934996
0.68277794 0.040626388 0.16199994 10527131
0.68289864 0.03898773 0.16099995 9934737
0.68179262 0.054623894 0.15699995 3355445
0.68155646 0.053113937 0.15899998 7436151
0.68132031 0.051614426 0.16099995 10395545
0.68108416 0.048552264 0.16299993 10329752
0.68108416 0.046979152 0.16299993 8750720
0.68108416 0.04540604 0.16299993 9408652
0.68108416 0.043832928 0.16299993 10329754
0.68108416 0.042259816 0.16299993 9606031
0.68108416 0.040686708 0.16299993 10592924
0.68120223 0.039050661 0.16199994 9539979
0.68008834 0.054660693 0.15799993 3158066
0.67985743 0.053153351 0.15999997 7435381
0.67974198 0.051614426 0.16099995 10527385
0.67951101 0.048552264 0.16299993 10395545
0.67951101 0.046979152 0.16299993 8750720
0.67951101 0.04540604 0.16299993 9474445
0.67951101 0.043832928 0.16299993 10198166
0.67951101 0.042259816 0.16299993 9342857
0.67951101 0.040686708 0.16299993 10527131
0.67951101 0.039113596 0.16299993 9869201
0.67838931 0.054697499 0.15899998 2960430
0.67827648 0.053153351 0.15999997 7501174
0.67816365 0.051614426 0.16099995 10856350
0.67793792 0.048552264 0.16299993 10395545
0.67793792 0.046979152 0.16299993 10000787
0.67793792 0.04540604 0.16299993 9474443
0.67782509 0.043888025 0.16399997 10329752
0.67782509 0.042317528 0.16399997 9408650
0.67669553 0.054734301 0.15999997 2631465
0.67669553 0.053153351 0.15999997 7698551
0.67658532 0.051614426 0.16099995 10856350
0.67636478 0.048552264 0.16299993 10461338
0.67636478 0.046979152 0.16299993 10000787
0.67625457 0.045458525 0.16399997 9474443
0.67625457 0.043888025 0.16399997 10987682
0.67625457 0.042317528 0.16399997 9803408
0.67511457 0.054734301 0.15999997 3158066
0.67511457 0.053153351 0.15999997 7830137
0.67500693 0.051614426 0.16099995 10461338
0.67489934 0.048505008 0.16199994 10329752
0.67479169 0.046979152 0.16299993 10000787
0.67479169 0.04540604 0.16299993 9474443
0.67353362 0.054734301 0.15999997 2566701
0.67353362 0.053153351 0.15999997 7566967
0.6734286 0.051614426 0.16099995 10461338
0.6734286 0.048457757 0.16099995 10132373
0.67332363 0.046929285 0.16199994 10132373
0.67321861 0.04540604 0.16299993 9671824
0.67205507 0.054697499 0.15899998 2500908
0.67195266 0.053153351 0.15999997 7632760
0.67195266 0.051572397 0.15999997 10395545
0.67185026 0.048457757 0.16099995 10000787
0.67047149 0.054697499 0.15899998 2237482
0.67047149 0.053113937 0.15899998 7567737
0.67037171 0.051572397 0.15999997 10330006
0.66898513 0.054660693 0.15799993 1975080
0.66898513 0.053074516 0.15799993 7567739
0.66739893 0.054660693 0.15799993 1975080
0.66581279 0.054660693 0.15799993 1975080
