# .PCD v0.7 - Point Cloud Data file format
VERSION 0.7
FIELDS x y z rgb
SIZE 4 4 4 4
TYPE F F F U
COUNT 1 1 1 1
WIDTH 117
HEIGHT 1
VIEWPOINT 0 0 0 1 0 0 0
POINTS 117
DATA ascii
0.76291955 0.055065528 0.16899997 3815994
0.76136214 0.055065528 0.16899997 3750201
0.75980473 0.055065528 0.16899997 3487799
0.75824726 0.055065528 0.16899997 3421236
0.75693595 0.055028722 0.16799998 3158060
0.75537592 0.055028722 0.16799998 3092267
0.75405681 0.05499192 0.16699994 3421230
0.7524941 0.05499192 0.16699994 3618093
0.75116712 0.054955117 0.16599995 3618093
0.74960184 0.054955117 0.16599995 3618093
0.74826705 0.054918315 0.16499996 3618093
0.74692696 0.054881513 0.16399997 3486507
0.7453565 0.054881513 0.16399997 3354667
0.74378598 0.054881513 0.16399997 3354667
0.74221551 0.054881513 0.16399997 3288874
0.74064499 0.054881513 0.16399997 3354667
0.73907447 0.054881513 0.16399997 3354667
0.73750401 0.054881513 0.16399997 3158058
0.73572397 0.054918315 0.16499996 3223851
0.73394912 0.054955117 0.16599995 3355437
0.73238385 0.054955117 0.16599995 3289903
0.73041523 0.055028722 0.16799998 3289903
0.72845697 0.05510233 0.16999996 3158317
0.73142105 0.062330469 0.14699996 4144687
0.73043871 0.060847301 0.15199995 4078894
0.72925985 0.059419226 0.15799993 4210480
0.72749156 0.056554578 0.16699994 4012847
0.72670567 0.055139132 0.17099994 4145207
0.73058158 0.063860901 0.14299995 4210480
0.72922456 0.062401682 0.14999998 4276273
0.72806138 0.060952701 0.15599996 4276019
0.72534734 0.05665715 0.16999996 4145203
0.72457188 0.055249542 0.17399997 4408377
0.72838247 0.063924268 0.14599997 4276019
0.72685248 0.062496632 0.15399998 4407605
0.72474873 0.059621967 0.16499996 4407605
0.7232188 0.056759719 0.17299998 4276789
0.72264504 0.055323146 0.17599994 4408377
0.72733086 0.065486275 0.14299995 4144435
0.72601038 0.064008765 0.14999998 4144435
0.72431266 0.06261532 0.15899998 4276021
0.72261494 0.059708863 0.16799998 3749677
0.72148317 0.058338277 0.17399997 3947056
0.72129452 0.056828097 0.17499995 3947056
0.72072864 0.055396751 0.17799997 4604988
0.72053999 0.053902254 0.17899996 5790035
0.72458935 0.06559734 0.14899993 3091495
0.72310114 0.064156637 0.15699995 3223335
0.72012484 0.059853677 0.17299998 3025702
0.71956676 0.058401428 0.17599994 2894116
0.71919471 0.056930669 0.17799997 3223081
0.71882266 0.055470355 0.17999995 4604734
0.71882266 0.053941667 0.17999995 5855828
0.718211 0.061453357 0.17499995 3487277
0.71802759 0.059940569 0.17599994 3421484
0.71747738 0.058496155 0.17899996 3421484
0.71729398 0.056999043 0.17999995 3488304
0.71711057 0.055507161 0.18099993 4408382
0.71729398 0.053941667 0.17999995 5658449
0.71612686 0.061532408 0.17799997 2434594
0.71594608 0.060027458 0.17899996 2171422
0.7157653 0.05852773 0.17999995 2237215
0.71558452 0.057033233 0.18099993 2566180
0.71558452 0.055507161 0.18099993 4408131
0.7157653 0.053941667 0.17999995 5264461
0.71441478 0.061558761 0.17899996 2039836
0.71441478 0.060027458 0.17899996 1908250
0.71423662 0.05852773 0.17999995 1974043
0.7140584 0.057033233 0.18099993 2237215
0.7140584 0.055507161 0.18099993 4276545
0.71423662 0.053941667 0.17999995 5198668
0.71270794 0.063113794 0.17999995 1776664
0.71270794 0.06158511 0.17999995 1776664
0.71270794 0.060056418 0.17999995 1710871
0.71270794 0.05852773 0.17999995 1710871
0.71270794 0.056999043 0.17999995 1974043
0.71270794 0.055470355 0.17999995 4473924
0.71270794 0.053941667 0.17999995 5067082
0.71066034 0.064705856 0.18299997 1842198
0.71083331 0.063161269 0.18199998 1842198
0.71100628 0.061611459 0.18099993 1973784
0.7111792 0.060056418 0.17999995 1842198
0.7111792 0.05852773 0.17999995 1842198
0.7111792 0.056999043 0.17999995 2105370
0.7111792 0.055470355 0.17999995 4342591
0.7111792 0.053941667 0.17999995 4869703
0.70948023 0.064663604 0.18099993 2762267
0.70948023 0.063137531 0.18099993 2630681
0.70982087 0.061558761 0.17899996 2696474
0.70982087 0.060027458 0.17899996 2433817
0.70982087 0.058496155 0.17899996 2696989
0.70982087 0.056964856 0.17899996 2762784
0.70982087 0.055433556 0.17899996 4407357
0.70982087 0.053902254 0.17899996 5000519
0.70845729 0.061532408 0.17799997 4408382
0.70845729 0.059998494 0.17799997 2763552
0.70845729 0.058464579 0.17799997 2895138
0.70828956 0.056964856 0.17899996 3223851
0.70828956 0.055433556 0.17899996 4144955
0.70828956 0.053902254 0.17899996 4934726
0.70708853 0.05996953 0.17699999 4540740
0.70692337 0.058464579 0.17799997 4343361
0.70692337 0.056930669 0.17799997 4672324
0.70692337 0.055396751 0.17799997 4539968
0.70692337 0.05386284 0.17799997 4868933
0.70571446 0.059940569 0.17599994 4672073
0.70555198 0.055359952 0.17699999 4738117
0.70555198 0.053823423 0.17699999 4737347
0.70433521 0.059911601 0.17499995 4738119
0.70417535 0.055323146 0.17599994 4803910
0.70401543 0.053823423 0.17699999 4671554
0.70263624 0.055323146 0.17599994 4869703
0.70247895 0.053823423 0.17699999 4737090
0.70109707 0.055323146 0.17599994 5000519
0.7009424 0.053823423 0.17699999 4868676
0.69940585 0.053823423 0.17699999 5000264
0.69633281 0.053823423 0.17699999 4934471
