# .PCD v0.7 - Point Cloud Data file format
VERSION 0.7
FIELDS x y z rgb
SIZE 4 4 4 4
TYPE F F F U
COUNT 1 1 1 1
WIDTH 1119
HEIGHT 1
VIEWPOINT 0 0 0 1 0 0 0
POINTS 1119
DATA ascii
0.8010447 -0.045213781 0.18099993 2830122
0.8010447 -0.046739854 0.18099993 2895915
0.8010447 -0.048265927 0.18099993 2830122
0.8010447 -0.049791999 0.18099993 2501157
0.8010447 -0.051318072 0.18099993 2501157
0.8010447 -0.052844144 0.18099993 2764329
0.80137181 -0.054595165 0.17999995 2830122
0.80137181 -0.05612386 0.17999995 2895915
0.80137181 -0.057652541 0.17999995 2830122
0.80137181 -0.059181236 0.17999995 2698536
0.80169892 -0.060945325 0.17899996 2698536
0.80169892 -0.062476613 0.17899996 2566950
0.80169892 -0.064007916 0.17899996 2698536
0.80169892 -0.065539218 0.17899996 2830122
0.80169892 -0.067070521 0.17899996 2961708
0.80169892 -0.068601824 0.17899996 2830122
0.80169892 -0.070133142 0.17899996 2895915
0.80137181 -0.071410738 0.17999995 2961455
0.80137181 -0.072939418 0.17999995 2961455
0.80071753 -0.073950268 0.18199998 2960685
0.80071753 -0.075473718 0.18199998 3092271
0.80071753 -0.076997183 0.18199998 3289652
0.80071753 -0.078520648 0.18199998 3552048
0.79984313 0.029482663 0.17999995 2762019
0.79984313 0.027953979 0.17999995 2499877
0.79951859 0.02651174 0.18099993 2500130
0.7991941 0.025074735 0.18199998 2368801
0.79886955 0.02364295 0.18299997 2368801
0.79886955 0.0221221 0.18299997 2368801
0.79886955 0.020601254 0.18299997 2566180
0.79886955 0.019080404 0.18299997 2566180
0.79886955 0.017559554 0.18299997 2500387
0.7991941 0.015933964 0.18199998 2434594
0.7991941 0.014410503 0.18199998 2434594
0.7991941 0.012887038 0.18199998 2434594
0.7991941 0.011363581 0.18199998 2500387
0.7991941 0.0098401234 0.18199998 2368801
0.79951859 0.0081988424 0.18099993 2368801
0.79951859 0.0066727698 0.18099993 2434594
0.79984313 0.0050236583 0.17999995 2368801
0.79984313 0.0034949705 0.17999995 2237215
0.79984313 0.0019662827 0.17999995 2368801
0.79984313 0.00043759495 0.17999995 2434594
0.79984313 -0.0010910928 0.17999995 2369571
0.79984313 -0.0026197806 0.17999995 2369571
0.80016762 -0.0042871833 0.17899996 2500387
0.80016762 -0.0058184862 0.17899996 2500387
0.80016762 -0.0073497891 0.17899996 2500387
0.79984313 -0.0087345392 0.17999995 2434594
0.79984313 -0.010263227 0.17999995 2368801
0.79984313 -0.011791915 0.17999995 2434594
0.79984313 -0.013320602 0.17999995 2566180
0.79984313 -0.01484929 0.17999995 2500387
0.79984313 -0.016377978 0.17999995 2434594
0.79984313 -0.017906658 0.17999995 2369571
0.79984313 -0.019435346 0.17999995 2501157
0.79984313 -0.020964034 0.17999995 2501157
0.79984313 -0.022492722 0.17999995 2435364
0.79984313 -0.024021409 0.17999995 2566950
0.79984313 -0.025550097 0.17999995 2501157
0.79984313 -0.027078785 0.17999995 2631973
0.79984313 -0.028607473 0.17999995 2631973
0.79984313 -0.030136161 0.17999995 2566180
0.79951859 -0.031479105 0.18099993 2566180
0.79951859 -0.033005178 0.18099993 2829352
0.79951859 -0.034531251 0.18099993 2895143
0.79951859 -0.036057331 0.18099993 2829350
0.7991941 -0.037387192 0.18199998 2697764
0.7991941 -0.03891065 0.18199998 2698536
0.7991941 -0.040434115 0.18199998 2764076
0.7991941 -0.041957572 0.18199998 2698283
0.7991941 -0.043481037 0.18199998 2698283
0.79886955 -0.04479523 0.18299997 2895662
0.79886955 -0.04631608 0.18299997 2961455
0.79886955 -0.04783693 0.18299997 2895915
0.79886955 -0.049357779 0.18299997 2764329
0.79886955 -0.050878622 0.18299997 2698536
0.79886955 -0.052399464 0.18299997 2764329
0.79886955 -0.053920321 0.18299997 2830122
0.7991941 -0.055668719 0.18199998 2895915
0.7991941 -0.057192184 0.18199998 2764329
0.7991941 -0.058715649 0.18199998 2895915
0.79951859 -0.060474522 0.18099993 2764329
0.79951859 -0.062000595 0.18099993 2764329
0.79951859 -0.063526668 0.18099993 2764329
0.79951859 -0.06505274 0.18099993 2830122
0.79951859 -0.066578828 0.18099993 3027501
0.79951859 -0.0681049 0.18099993 2961708
0.79951859 -0.069630988 0.18099993 2961708
0.7991941 -0.070903338 0.18199998 3159087
0.79886955 -0.072170489 0.18299997 3159087
0.79886955 -0.073691346 0.18299997 3027501
0.79886955 -0.075212188 0.18299997 3356215
0.79886955 -0.076733045 0.18299997 3552824
0.79886955 -0.078253888 0.18299997 4472897
0.79854506 -0.079505377 0.18399996 5459792
0.79799253 0.029563885 0.18099993 3156775
0.7976706 0.028121658 0.18199998 2630946
0.7976706 0.026598196 0.18199998 2500130
0.79734874 0.0251638 0.18299997 2368801
0.79702681 0.023734629 0.18399996 2237215
0.79702681 0.022216391 0.18399996 2434594
0.79702681 0.020698156 0.18399996 2566180
0.79702681 0.019179922 0.18399996 2500387
0.79702681 0.017661687 0.18399996 2500387
0.79702681 0.016143449 0.18399996 2434594
0.79702681 0.014625214 0.18399996 2500387
0.79734874 0.012997009 0.18299997 2434594
0.79734874 0.011476159 0.18299997 2500387
0.79734874 0.0099553168 0.18299997 2434594
0.79734874 0.008434467 0.18299997 2434594
0.79734874 0.0069136173 0.18299997 2434594
0.7976706 0.0052697361 0.18199998 2368801
0.7976706 0.0037462711 0.18199998 2237215
0.7976706 0.0022228137 0.18199998 2368801
0.7976706 0.00069934875 0.18199998 2434594
0.7976706 -0.00082411617 0.18199998 2500387
0.7976706 -0.0023475736 0.18199998 2369571
0.79799253 -0.0040097609 0.18099993 2369571
0.79799253 -0.0055358335 0.18099993 2303778
0.79799253 -0.0070619062 0.18099993 2369571
0.79799253 -0.0085879862 0.18099993 2303778
0.7976706 -0.0099648833 0.18199998 2237985
0.7976706 -0.011488348 0.18199998 2434594
0.7976706 -0.013011806 0.18199998 2500387
0.7976706 -0.014535271 0.18199998 2500387
0.7976706 -0.016058728 0.18199998 2434594
0.7976706 -0.017582186 0.18199998 2369571
0.7976706 -0.019105643 0.18199998 2435364
0.7976706 -0.020629108 0.18199998 2501157
0.7976706 -0.022152573 0.18199998 2501157
0.7976706 -0.02367603 0.18199998 2697766
0.7976706 -0.025199495 0.18199998 2566180
0.7976706 -0.026722953 0.18199998 2631973
0.79734874 -0.028065898 0.18299997 2631973
0.79734874 -0.02958674 0.18299997 2631973
0.79734874 -0.03110759 0.18299997 2631973
0.79734874 -0.032628439 0.18299997 2697766
0.79734874 -0.034149289 0.18299997 2895143
0.79734874 -0.035670139 0.18299997 2829350
0.79734874 -0.037190989 0.18299997 2895143
0.79734874 -0.038711838 0.18299997 2960938
0.79702681 -0.040031254 0.18399996 3026731
0.79702681 -0.041549489 0.18399996 2895145
0.79702681 -0.043067731 0.18399996 2960938
0.79702681 -0.044585966 0.18399996 2961708
0.79670489 -0.045892321 0.18499994 3027501
0.79670489 -0.04740794 0.18499994 3027501
0.79670489 -0.048923559 0.18499994 2961708
0.79670489 -0.050439186 0.18499994 2895915
0.79702681 -0.052177139 0.18399996 2895915
0.79702681 -0.053695373 0.18399996 2895915
0.79702681 -0.055213608 0.18399996 2895915
0.79702681 -0.056731842 0.18399996 2830122
0.79702681 -0.058250077 0.18399996 2830122
0.79734874 -0.060003705 0.18299997 2895915
0.79734874 -0.061524563 0.18299997 2764329
0.79734874 -0.063045405 0.18299997 2895915
0.79734874 -0.064566262 0.18299997 2961708
0.79734874 -0.066087104 0.18299997 3027501
0.79734874 -0.067607947 0.18299997 2961708
0.79734874 -0.069128804 0.18299997 2961708
0.79702681 -0.070395954 0.18399996 3159087
0.79702681 -0.071914189 0.18399996 3224880
0.79670489 -0.073173515 0.18499994 3224880
0.79670489 -0.074689128 0.18499994 3356215
0.79670489 -0.076204754 0.18499994 3487801
0.79670489 -0.077720381 0.18499994 4342081
0.79614717 0.029645115 0.18199998 3288615
0.79582787 0.028205495 0.18299997 2500128
0.79582787 0.026684649 0.18299997 2500128
0.79550856 0.025252864 0.18399996 2368801
0.79518926 0.023826305 0.18499994 2237215
0.79518926 0.022310682 0.18499994 2434594
0.79518926 0.020795062 0.18499994 2566180
0.79518926 0.019279439 0.18499994 2500387
0.79518926 0.017763816 0.18499994 2500387
0.79518926 0.016248193 0.18499994 2434594
0.79518926 0.014732569 0.18499994 2500387
0.79518926 0.01321695 0.18499994 2566180
0.79518926 0.011701323 0.18499994 2566180
0.79550856 0.01007051 0.18399996 2566178
0.79550856 0.0085522756 0.18399996 2434592
0.79550856 0.007034041 0.18399996 2434592
0.79550856 0.0055158064 0.18399996 2434592
0.79550856 0.0039975718 0.18399996 2237213
0.79550856 0.0024793297 0.18399996 2368799
0.79582787 0.00083022565 0.18299997 2434592
0.79582787 -0.00069062412 0.18299997 2500385
0.79582787 -0.0022114739 0.18299997 2369571
0.79582787 -0.0037323236 0.18299997 2369571
0.79582787 -0.0052531734 0.18299997 2435364
0.79582787 -0.0067740232 0.18299997 2435364
0.79582787 -0.0082948729 0.18299997 2369571
0.79582787 -0.0098157153 0.18299997 2303778
0.79550856 -0.011184789 0.18399996 2303778
0.79550856 -0.012703024 0.18399996 2434594
0.79550856 -0.014221258 0.18399996 2434594
0.79550856 -0.015739493 0.18399996 2434594
0.79550856 -0.01725772 0.18399996 2500387
0.79550856 -0.018775955 0.18399996 2435364
0.79550856 -0.020294189 0.18399996 2435364
0.79550856 -0.021812432 0.18399996 2501157
0.79550856 -0.023330666 0.18399996 2697766
0.79550856 -0.024848901 0.18399996 2566180
0.79550856 -0.026367135 0.18399996 2631973
0.79550856 -0.02788537 0.18399996 2631973
0.79550856 -0.029403605 0.18399996 2631973
0.79518926 -0.030736096 0.18499994 2566180
0.79518926 -0.032251716 0.18499994 2631973
0.79518926 -0.033767335 0.18499994 2829352
0.79518926 -0.035282962 0.18499994 2829350
0.79518926 -0.036798581 0.18499994 2895143
0.79518926 -0.038314208 0.18499994 2895143
0.79518926 -0.039829828 0.18499994 3026731
0.79487002 -0.041141413 0.18599993 2895145
0.79487002 -0.042654417 0.18599993 2960938
0.79487002 -0.044167429 0.18599993 2961708
0.79487002 -0.045680441 0.18599993 3027501
0.79455072 -0.046978943 0.18699998 3027501
0.79455072 -0.04848934 0.18699998 2830892
0.79455072 -0.049999736 0.18699998 2830892
0.79487002 -0.051732473 0.18599993 2830892
0.79487002 -0.053245477 0.18599993 2961708
0.79487002 -0.054758482 0.18599993 2895915
0.79487002 -0.056271501 0.18599993 2830122
0.79518926 -0.058017291 0.18499994 2830122
0.79518926 -0.059532918 0.18499994 2895915
0.79518926 -0.06104853 0.18499994 2830122
0.79518926 -0.062564157 0.18499994 2895915
0.79518926 -0.064079784 0.18499994 3027501
0.79518926 -0.065595396 0.18499994 3027501
0.79518926 -0.067111023 0.18499994 2895915
0.79518926 -0.06862665 0.18499994 2961455
0.79518926 -0.070142277 0.18499994 3158834
0.79487002 -0.071401589 0.18599993 3224627
0.79455072 -0.07265567 0.18699998 3224627
0.79455072 -0.074166052 0.18699998 3487029
0.79455072 -0.075676464 0.18699998 3618615
0.79455072 -0.077186845 0.18699998 4013373
0.79487002 -0.07896664 0.18599993 4604736
0.79487002 -0.080479644 0.18599993 4999494
0.79430699 0.029726341 0.18299997 3223081
0.79399037 0.028289337 0.18399996 2500128
0.79399037 0.026771098 0.18399996 2434337
0.79367369 0.025341928 0.18499994 2368801
0.79335701 0.023917984 0.18599993 2237215
0.79335701 0.022404972 0.18599993 2434594
0.79335701 0.020891964 0.18599993 2434594
0.79335701 0.019378956 0.18599993 2434594
0.79335701 0.017865945 0.18599993 2434594
0.79335701 0.016352937 0.18599993 2434594
0.79335701 0.014839925 0.18599993 2500387
0.79335701 0.013326921 0.18599993 2500387
0.79335701 0.011813909 0.18599993 2435364
0.79335701 0.010300905 0.18599993 2566178
0.79335701 0.0087878928 0.18599993 2500385
0.79335701 0.007274881 0.18599993 2500385
0.79335701 0.0057618767 0.18599993 2368799
0.79335701 0.0042488649 0.18599993 2368799
0.79367369 0.0026075915 0.18499994 2368799
0.79367369 0.001091972 0.18499994 2368799
0.79367369 -0.00042364746 0.18499994 2434592
0.79367369 -0.0019392744 0.18499994 2303778
0.79367369 -0.0034548938 0.18499994 2369571
0.79367369 -0.0049705207 0.18499994 2369571
0.79367369 -0.0064861402 0.18499994 2369571
0.79367369 -0.0080017671 0.18499994 2369571
0.79367369 -0.0095173866 0.18499994 2303778
0.79367369 -0.011033006 0.18499994 2237985
0.79367369 -0.012548633 0.18499994 2368801
0.79367369 -0.014064252 0.18499994 2434594
0.79335701 -0.015420258 0.18599993 2434594
0.79335701 -0.016933262 0.18599993 2303778
0.79335701 -0.018446267 0.18599993 2435364
0.79335701 -0.019959278 0.18599993 2435364
0.79335701 -0.02147229 0.18599993 2435364
0.79335701 -0.022985294 0.18599993 2501157
0.79335701 -0.024498306 0.18599993 2435364
0.79335701 -0.026011318 0.18599993 2501157
0.79335701 -0.027524322 0.18599993 2435364
0.79335701 -0.029037334 0.18599993 2566180
0.79335701 -0.030550346 0.18599993 2566180
0.79335701 -0.03206335 0.18599993 2631973
0.79335701 -0.033576362 0.18599993 2829352
0.79304028 -0.03489577 0.18699998 2697766
0.79304028 -0.036406167 0.18699998 2829352
0.79304028 -0.037916563 0.18699998 2895145
0.79272366 -0.039225534 0.18799996 2895145
0.79272366 -0.040733315 0.18799996 2895145
0.79272366 -0.042241096 0.18799996 2895145
0.79272366 -0.043748878 0.18799996 3026731
0.79272366 -0.045256667 0.18799996 3092524
0.79240698 -0.046549954 0.18899995 2961708
0.79240698 -0.04805512 0.18899995 2830892
0.79240698 -0.049560301 0.18899995 2830892
0.79240698 -0.051065452 0.18899995 2830892
0.79240698 -0.052570619 0.18899995 3159087
0.79272366 -0.054303356 0.18799996 3027501
0.79272366 -0.055811144 0.18799996 2764076
0.79272366 -0.057318918 0.18799996 2829869
0.79304028 -0.059062101 0.18699998 2830122
0.79304028 -0.060572498 0.18699998 2961708
0.79304028 -0.062082894 0.18699998 2961708
0.79304028 -0.063593291 0.18699998 3027501
0.79304028 -0.065103687 0.18699998 3027501
0.79304028 -0.066614084 0.18699998 2961708
0.79304028 -0.068124481 0.18699998 2961708
0.79272366 -0.069381185 0.18799996 3158834
0.79272366 -0.070888959 0.18799996 3224627
0.79240698 -0.07213784 0.18899995 3224627
0.79240698 -0.073642991 0.18899995 3355443
0.79240698 -0.075148173 0.18899995 3421236
0.79240698 -0.076653339 0.18899995 3750201
0.79272366 -0.078427888 0.18799996 4144702
0.79272366 -0.079935662 0.18799996 4144702
0.79278618 0.029726341 0.18299997 3091495
0.79215801 0.028373174 0.18499994 2500128
0.79215801 0.026857551 0.18499994 2434335
0.79184401 0.025430992 0.18599993 2368801
0.79152989 0.024009667 0.18699998 2237215
0.79121584 0.022593562 0.18799996 2434594
0.79121584 0.021085776 0.18799996 2434594
0.79121584 0.019577995 0.18799996 2434594
0.79121584 0.018070213 0.18799996 2434594
0.79121584 0.016562428 0.18799996 2434594
0.79121584 0.015054647 0.18799996 2500387
0.79121584 0.013546862 0.18799996 2369571
0.79121584 0.01203908 0.18799996 2435364
0.79121584 0.010531299 0.18799996 2435362
0.79121584 0.0090235174 0.18799996 2369569
0.79121584 0.0075157359 0.18799996 2303776
0.79121584 0.0060079545 0.18799996 2106397
0.79121584 0.0045001656 0.18799996 2237983
0.79121584 0.0029923841 0.18799996 2368799
0.79121584 0.0014846027 0.18799996 2237213
0.79152989 -0.00015667081 0.18699998 2368801
0.79152989 -0.0016670674 0.18699998 2303778
0.79152989 -0.003177464 0.18699998 2369571
0.79152989 -0.0046878532 0.18699998 2303778
0.79152989 -0.0061982498 0.18699998 2369571
0.79152989 -0.0077086464 0.18699998 2369571
0.79152989 -0.009219043 0.18699998 2237985
0.79152989 -0.01072944 0.18699998 2368801
0.79152989 -0.012239836 0.18699998 2237215
0.79152989 -0.013750233 0.18699998 2368801
0.79121584 -0.015101008 0.18799996 2303778
0.79121584 -0.01660879 0.18799996 2303778
0.79121584 -0.018116571 0.18799996 2369571
0.79121584 -0.019624352 0.18799996 2369571
0.79121584 -0.021132134 0.18799996 2369571
0.79121584 -0.022639915 0.18799996 2501157
0.79121584 -0.024147704 0.18799996 2435364
0.79121584 -0.025655486 0.18799996 2435364
0.79121584 -0.027163267 0.18799996 2435364
0.79121584 -0.028671049 0.18799996 2435364
0.79121584 -0.03017883 0.18799996 2369571
0.79090178 -0.031498253 0.18899995 2435364
0.79090178 -0.033003427 0.18899995 2566950
0.79090178 -0.034508593 0.18899995 2566950
0.79090178 -0.036013767 0.18899995 2566950
0.79090178 -0.037518933 0.18899995 2698536
0.79090178 -0.039024107 0.18899995 2698536
0.79090178 -0.040529273 0.18899995 2764329
0.79058772 -0.04182779 0.18999994 2764329
0.79058772 -0.043330349 0.18999994 2764329
0.79058772 -0.0448329 0.18999994 2895915
0.79058772 -0.046335459 0.18999994 2895915
0.79058772 -0.047838017 0.18999994 2765099
0.79058772 -0.049340568 0.18999994 2765099
0.79058772 -0.050843127 0.18999994 2830892
0.79058772 -0.052345686 0.18999994 3159087
0.79058772 -0.053848229 0.18999994 3027501
0.79058772 -0.055350788 0.18999994 2764076
0.79058772 -0.056853347 0.18999994 2829869
0.79090178 -0.058591299 0.18899995 2830122
0.79090178 -0.06009648 0.18899995 2961708
0.79090178 -0.061601646 0.18899995 2961708
0.79090178 -0.063106813 0.18899995 2961708
0.79090178 -0.064611979 0.18899995 2961708
0.79090178 -0.06611716 0.18899995 2895915
0.79090178 -0.067622326 0.18899995 3027501
0.79058772 -0.0688738 0.18999994 3159087
0.79058772 -0.070376359 0.18999994 3158834
0.79058772 -0.071878918 0.18999994 3224627
0.79027367 -0.073119916 0.19099998 3355443
0.79027367 -0.074619867 0.19099998 3487029
0.79058772 -0.076386578 0.18999994 3552822
0.79058772 -0.077889152 0.18999994 3882040
0.79090178 -0.079663672 0.18899995 4013626
0.79121584 -0.081443451 0.18799996 8749947
0.79126531 0.031247191 0.18299997 5722182
0.79095387 0.029807568 0.18399996 2827040
0.79064244 0.028373174 0.18499994 2565921
0.79033101 0.026944 0.18599993 2237213
0.79033101 0.025430992 0.18599993 2237215
0.78970808 0.024101343 0.18799996 2368801
0.78970808 0.022593562 0.18799996 2434594
0.78939664 0.021182682 0.18899995 2434594
0.78939664 0.019677512 0.18899995 2434594
0.78939664 0.018172342 0.18899995 2434594
0.78939664 0.016667172 0.18899995 2368801
0.78939664 0.015162002 0.18899995 2369571
0.78939664 0.013656832 0.18899995 2369571
0.78939664 0.012151659 0.18899995 2369571
0.78939664 0.0106465 0.18899995 2435362
0.78908515 0.0092591345 0.18999994 2303776
0.78908515 0.0077565759 0.18999994 2303776
0.78908515 0.0062540248 0.18999994 2237983
0.78908515 0.0047514662 0.18999994 2237983
0.78908515 0.0032489076 0.18999994 2368799
0.78939664 0.0016154796 0.18899995 2237213
0.78939664 0.00011030585 0.18899995 2368799
0.78939664 -0.0013948604 0.18899995 2303778
0.78939664 -0.0029000342 0.18899995 2303778
0.78939664 -0.0044052005 0.18899995 2303778
0.78939664 -0.0059103742 0.18899995 2369571
0.78939664 -0.0074155405 0.18899995 2303778
0.78939664 -0.0089207143 0.18899995 2237985
0.78939664 -0.010425881 0.18899995 2237985
0.78939664 -0.011931054 0.18899995 2237215
0.78939664 -0.013436221 0.18899995 2368801
0.78939664 -0.014941394 0.18899995 2434594
0.78939664 -0.016446553 0.18899995 2303778
0.78939664 -0.017951727 0.18899995 2369571
0.78939664 -0.019456893 0.18899995 2303778
0.78939664 -0.020962067 0.18899995 2369571
0.78939664 -0.022467233 0.18899995 2435364
0.78939664 -0.023972407 0.18899995 2435364
0.78908515 -0.025299661 0.18999994 2435364
0.78908515 -0.026802219 0.18999994 2435364
0.78908515 -0.028304778 0.18999994 2435364
0.78908515 -0.029807337 0.18999994 2369571
0.78908515 -0.031309895 0.18999994 2435364
0.78908515 -0.032812446 0.18999994 2566950
0.78877372 -0.034121402 0.19099998 2501157
0.78877372 -0.035621345 0.19099998 2501157
0.78877372 -0.037121288 0.19099998 2566950
0.78877372 -0.038621239 0.19099998 2698536
0.78877372 -0.040121183 0.19099998 2698536
0.78877372 -0.041621126 0.19099998 2764329
0.78846228 -0.042911798 0.19199997 2764329
0.78846228 -0.044409126 0.19199997 2830122
0.78846228 -0.045906462 0.19199997 2830122
0.78846228 -0.04740379 0.19199997 2765099
0.78846228 -0.048901118 0.19199997 2830122
0.78846228 -0.050398447 0.19199997 2895915
0.78846228 -0.051895775 0.19199997 3027501
0.78846228 -0.053393103 0.19199997 3027501
0.78846228 -0.054890431 0.19199997 2895915
0.78877372 -0.056620546 0.19099998 2895915
0.78877372 -0.058120497 0.19099998 2830122
0.78877372 -0.059620433 0.19099998 2961708
0.78877372 -0.061120383 0.19099998 2895915
0.78877372 -0.062620319 0.19099998 2961708
0.78877372 -0.06412027 0.19099998 2961708
0.78877372 -0.065620206 0.19099998 2830122
0.78877372 -0.067120157 0.19099998 2961708
0.78877372 -0.068620093 0.19099998 3027501
0.78877372 -0.070120029 0.19099998 3027248
0.78846228 -0.071361072 0.19199997 3158834
0.78846228 -0.072858386 0.19199997 3158834
0.78846228 -0.074355729 0.19199997 3421236
0.78846228 -0.075853057 0.19199997 3487029
0.78877372 -0.077619754 0.19099998 3618868
0.78908515 -0.079391696 0.18999994 3816247
0.78939664 -0.081168853 0.18899995 4144185
0.7897445 0.031247191 0.18299997 5065537
0.78912681 0.02988879 0.18499994 2433054
0.78881794 0.028457012 0.18599993 2631714
0.78881794 0.026944 0.18599993 2368799
0.78820026 0.025609128 0.18799996 2171422
0.78820026 0.024101343 0.18799996 2237215
0.78789145 0.022687852 0.18899995 2368801
0.78789145 0.021182682 0.18899995 2434594
0.78758264 0.01977703 0.18999994 2368801
0.78758264 0.018274471 0.18999994 2368801
0.78758264 0.016771916 0.18999994 2369571
0.78758264 0.015269358 0.18999994 2303778
0.78758264 0.013766803 0.18999994 2303778
0.78758264 0.012264244 0.18999994 2303778
0.78758264 0.010761693 0.18999994 2369571
0.78727376 0.0093769506 0.19099998 2303778
0.78727376 0.0078770071 0.19099998 2303778
0.78727376 0.0063770637 0.19099998 2237985
0.78727376 0.0048771203 0.19099998 2368799
0.78727376 0.0033771768 0.19099998 2368799
0.78727376 0.0018772334 0.19099998 2237213
0.78727376 0.00037728995 0.19099998 2237213
0.78727376 -0.0011226535 0.19099998 2368799
0.78727376 -0.0026225969 0.19099998 2369569
0.78758264 -0.0042638779 0.18999994 2303776
0.78758264 -0.0057664365 0.18999994 2303776
0.78758264 -0.0072689876 0.18999994 2303776
0.78758264 -0.0087715462 0.18999994 2237983
0.78758264 -0.010274105 0.18999994 2237983
0.78758264 -0.011776663 0.18999994 2237213
0.78727376 -0.013122201 0.19099998 2237213
0.78727376 -0.014622144 0.19099998 2434592
0.78727376 -0.01612208 0.19099998 2434592
0.78727376 -0.017622024 0.19099998 2434592
0.78727376 -0.019121967 0.19099998 2303776
0.78727376 -0.020621911 0.19099998 2303776
0.78727376 -0.022121854 0.19099998 2369569
0.78727376 -0.023621798 0.19099998 2369569
0.78727376 -0.025121741 0.19099998 2369569
0.78727376 -0.026621684 0.19099998 2435362
0.78696489 -0.027938493 0.19199997 2435362
0.78696489 -0.029435828 0.19199997 2435362
0.78696489 -0.030933157 0.19199997 2435362
0.78696489 -0.032430485 0.19199997 2435362
0.78696489 -0.033927813 0.19199997 2435364
0.78696489 -0.035425149 0.19199997 2435364
0.78696489 -0.036922477 0.19199997 2501157
0.78696489 -0.038419805 0.19199997 2566950
0.78665608 -0.0397131 0.19299996 2566950
0.78665608 -0.041207813 0.19299996 2566950
0.78665608 -0.042702533 0.19299996 2698536
0.78665608 -0.044197246 0.19299996 2764329
0.78665608 -0.045691967 0.19299996 2764329
0.78634727 -0.046969578 0.19399995 2830122
0.78634727 -0.048461683 0.19399995 2566950
0.78634727 -0.049953781 0.19399995 2698536
0.78665608 -0.051670827 0.19299996 3026731
0.78665608 -0.053165548 0.19299996 3092524
0.78665608 -0.054660268 0.19299996 3026731
0.78665608 -0.056154974 0.19299996 2830122
0.78665608 -0.057649694 0.19299996 2764329
0.78665608 -0.059144415 0.19299996 2830122
0.78696489 -0.060879759 0.19199997 2895915
0.78696489 -0.062377088 0.19199997 2961708
0.78696489 -0.063874416 0.19199997 2961708
0.78696489 -0.065371744 0.19199997 2895915
0.78665608 -0.066618003 0.19299996 2961708
0.78665608 -0.068112724 0.19299996 2961708
0.78665608 -0.069607429 0.19299996 2961455
0.78665608 -0.07110215 0.19299996 2961455
0.78634727 -0.072335325 0.19399995 3158834
0.78634727 -0.073827438 0.19399995 3355443
0.78665608 -0.075586297 0.19299996 3421236
0.78665608 -0.077081017 0.19299996 3618868
0.78696489 -0.078847714 0.19199997 3618868
0.78758264 -0.080894254 0.18999994 4013369
0.78822362 0.031247191 0.18299997 5131330
0.78761119 0.02988879 0.18499994 2301468
0.787305 0.028457012 0.18599993 2763300
0.78699875 0.027030457 0.18699998 2434335
0.7866925 0.025609128 0.18799996 2237213
0.78638625 0.024193022 0.18899995 2237215
0.78638625 0.022687852 0.18899995 2368801
0.78608006 0.021279585 0.18999994 2368801
0.78577381 0.019876551 0.19099998 2237215
0.78577381 0.018376607 0.19099998 2237215
0.78577381 0.016876664 0.19099998 2303778
0.78577381 0.015376721 0.19099998 2237985
0.78577381 0.013876773 0.19099998 2237985
0.78577381 0.01237683 0.19099998 2237985
0.78546762 0.010992087 0.19199997 2303778
0.78546762 0.0094947591 0.19199997 2368801
0.78546762 0.0079974309 0.19199997 2434594
0.78546762 0.0065000951 0.19199997 2237215
0.78546762 0.0050027668 0.19199997 2368801
0.78546762 0.0035054386 0.19199997 2237213
0.78546762 0.0020081103 0.19199997 2368799
0.78546762 0.00051077455 0.19199997 2368799
0.78546762 -0.00098655373 0.19199997 2434592
0.78546762 -0.002483882 0.19199997 2434592
0.78546762 -0.0039812177 0.19199997 2434592
0.78546762 -0.005478546 0.19199997 2434592
0.78546762 -0.0069758743 0.19199997 2368799
0.78546762 -0.00847321 0.19199997 2368799
0.78546762 -0.0099705383 0.19199997 2434592
0.78546762 -0.011467867 0.19199997 2237213
0.78546762 -0.012965195 0.19199997 2368799
0.78546762 -0.014462531 0.19199997 2434592
0.78546762 -0.015959851 0.19199997 2434592
0.78546762 -0.01745718 0.19199997 2434592
0.78546762 -0.018954508 0.19199997 2434592
0.78546762 -0.020451844 0.19199997 2434592
0.78546762 -0.021949172 0.19199997 2369569
0.78546762 -0.0234465 0.19199997 2435362
0.78546762 -0.024943836 0.19199997 2435362
0.78516138 -0.026260637 0.19299996 2369569
0.78516138 -0.027755357 0.19299996 2435362
0.78516138 -0.029250078 0.19299996 2369569
0.78516138 -0.030744791 0.19299996 2435362
0.78516138 -0.032239512 0.19299996 2435362
0.78516138 -0.033734225 0.19299996 2369569
0.78516138 -0.035228945 0.19299996 2435362
0.78485513 -0.036524847 0.19399995 2435362
0.78485513 -0.038016953 0.19399995 2501155
0.78454894 -0.039305016 0.19499993 2566948
0.78454894 -0.040794507 0.19499993 2566948
0.78454894 -0.042283997 0.19499993 2566948
0.78454894 -0.043773487 0.19499993 2698534
0.78454894 -0.045262977 0.19499993 2698534
0.78454894 -0.046752468 0.19499993 2764327
0.78454894 -0.048241965 0.19499993 2697766
0.78454894 -0.049731441 0.19499993 2697766
0.78454894 -0.051220931 0.19499993 3026731
0.78454894 -0.052710421 0.19499993 3026731
0.78454894 -0.054199912 0.19499993 2960938
0.78454894 -0.055689402 0.19499993 2764329
0.78485513 -0.057414301 0.19399995 2698536
0.78485513 -0.058906399 0.19399995 2764329
0.78485513 -0.060398512 0.19399995 2830122
0.78485513 -0.06189061 0.19399995 2961708
0.78485513 -0.063382722 0.19399995 2961706
0.78454894 -0.064626358 0.19499993 2895913
0.78454894 -0.066115849 0.19499993 2895915
0.78454894 -0.067605339 0.19499993 2961708
0.78454894 -0.069094814 0.19499993 3092524
0.78454894 -0.07058432 0.19499993 3092524
0.78454894 -0.07207381 0.19499993 3158317
0.78424269 -0.073299147 0.19599998 3158317
0.78454894 -0.07505279 0.19499993 3158317
0.78485513 -0.076811649 0.19399995 3355696
0.78516138 -0.078575738 0.19299996 3487282
0.78546762 -0.080345057 0.19199997 3881787
0.78639913 0.031325802 0.18399996 4999746
0.78579193 0.029970016 0.18599993 2169629
0.78548831 0.028540853 0.18699998 2894888
0.78518474 0.02711691 0.18799996 2434594
0.78488111 0.025698192 0.18899995 2171422
0.78457749 0.024284698 0.18999994 2171422
0.78457749 0.022782143 0.18999994 2237215
0.78427386 0.021376494 0.19099998 2368801
0.78427386 0.019876551 0.19099998 2237215
0.78397024 0.018478736 0.19199997 2171422
0.78397024 0.016981408 0.19199997 2106399
0.78397024 0.015484076 0.19199997 2106399
0.78397024 0.013986744 0.19199997 2106399
0.78397024 0.012489416 0.19199997 2237985
0.78366661 0.011107288 0.19299996 2237985
0.78366661 0.0096125677 0.19299996 2368801
0.78366661 0.0081178471 0.19299996 2434594
0.78336304 0.0067461655 0.19399995 2368801
0.78336304 0.0052540675 0.19399995 2368801
0.78336304 0.0037619621 0.19399995 2237215
0.78336304 0.0022698566 0.19399995 2368801
0.78366661 0.00064426661 0.19299996 2237215
0.78366661 -0.00085045397 0.19299996 2434594
0.78366661 -0.0023451746 0.19299996 2434592
0.78366661 -0.0038398877 0.19299996 2434592
0.78366661 -0.0053346083 0.19299996 2434592
0.78366661 -0.0068293214 0.19299996 2368799
0.78366661 -0.008324042 0.19299996 2368799
0.78366661 -0.0098187551 0.19299996 2368799
0.78366661 -0.011313476 0.19299996 2237213
0.78366661 -0.012808196 0.19299996 2368799
0.78366661 -0.014302909 0.19299996 2434592
0.78366661 -0.015797623 0.19299996 2434592
0.78366661 -0.017292336 0.19299996 2434592
0.78366661 -0.018787056 0.19299996 2434592
0.78366661 -0.020281769 0.19299996 2434592
0.78366661 -0.02177649 0.19299996 2303776
0.78336304 -0.023095906 0.19399995 2435362
0.78336304 -0.024588011 0.19399995 2435362
0.78305942 -0.025899597 0.19499993 2369569
0.78305942 -0.027389087 0.19499993 2369569
0.78305942 -0.028878577 0.19499993 2303776
0.78305942 -0.030368067 0.19499993 2369569
0.78305942 -0.031857558 0.19499993 2369569
0.78305942 -0.033347048 0.19499993 2369571
0.78305942 -0.034836538 0.19499993 2369571
0.78305942 -0.036326028 0.19499993 2369571
0.78305942 -0.037815526 0.19499993 2435364
0.78275579 -0.03910096 0.19599998 2435364
0.78275579 -0.040587842 0.19599998 2435364
0.78275579 -0.042074718 0.19599998 2501157
0.78275579 -0.043561593 0.19599998 2501157
0.78245223 -0.044833981 0.19699997 2501157
0.78245223 -0.04631824 0.19699997 2698536
0.78275579 -0.048022233 0.19599998 2697766
0.78275579 -0.049509101 0.19599998 2697766
0.78275579 -0.050995968 0.19599998 2829352
0.78275579 -0.052482851 0.19599998 2895145
0.78275579 -0.053969733 0.19599998 2895145
0.78275579 -0.055456616 0.19599998 2829352
0.78275579 -0.056943484 0.19599998 2697766
0.78275579 -0.058430366 0.19599998 2697766
0.78275579 -0.059917249 0.19599998 2697766
0.78275579 -0.061404116 0.19599998 2830122
0.78275579 -0.062890999 0.19599998 2961706
0.78275579 -0.064377882 0.19599998 2895913
0.78275579 -0.065864764 0.19599998 3027499
0.78275579 -0.067351632 0.19599998 3158317
0.78275579 -0.068838499 0.19599998 3092524
0.78275579 -0.070325382 0.19599998 3026731
0.78275579 -0.071812265 0.19599998 3092524
0.78275579 -0.073299147 0.19599998 3092524
0.78275579 -0.074786015 0.19599998 3092524
0.78305942 -0.076542281 0.19499993 3158317
0.78366661 -0.078575738 0.19299996 3355696
0.78397024 -0.080345057 0.19199997 3750454
0.78518194 0.032768037 0.18299997 5657422
0.78488094 0.031325802 0.18399996 1183247
0.78427893 0.029970016 0.18599993 2104349
0.78367692 0.028624695 0.18799996 2697766
0.78337592 0.027203362 0.18899995 2434594
0.78337592 0.025698192 0.18899995 2171422
0.78307498 0.024284698 0.18999994 2171422
0.78277391 0.022876438 0.19099998 2237215
0.78247297 0.0214734 0.19199997 2237215
0.78247297 0.019976068 0.19199997 2237215
0.78247297 0.018478736 0.19199997 2105629
0.78217196 0.017086152 0.19299996 2171422
0.78217196 0.015591431 0.19299996 2237215
0.78217196 0.014096715 0.19299996 2040606
0.78187096 0.01271458 0.19399995 2237985
0.78187096 0.011222482 0.19399995 2237985
0.78187096 0.0097303763 0.19399995 2237215
0.78156996 0.0083586946 0.19499993 2237215
0.78156996 0.0068692043 0.19499993 2368801
0.78156996 0.0053797141 0.19499993 2368801
0.78156996 0.0038902238 0.19499993 2237215
0.78156996 0.0024007261 0.19499993 2368801
0.78156996 0.00091123581 0.19499993 2237215
0.78156996 -0.00057825446 0.19499993 2434594
0.78156996 -0.0020677447 0.19499993 2500387
0.78187096 -0.0036985651 0.19399995 2434592
0.78187096 -0.005190663 0.19399995 2237213
0.78187096 -0.0066827685 0.19399995 2368799
0.78187096 -0.0081748739 0.19399995 2368799
0.78187096 -0.0096669793 0.19399995 2368799
0.78187096 -0.011159085 0.19399995 2237213
0.78187096 -0.01265119 0.19399995 2368799
0.78187096 -0.014143288 0.19399995 2566178
0.78187096 -0.015635386 0.19399995 2500385
0.78187096 -0.017127492 0.19399995 2434592
0.78187096 -0.018619597 0.19399995 2434592
0.78187096 -0.020111702 0.19399995 2434592
0.78156996 -0.021431118 0.19499993 2368799
0.78156996 -0.022920609 0.19499993 2566178
0.78156996 -0.024410106 0.19499993 2500385
0.78126895 -0.025719061 0.19599998 2566178
0.78126895 -0.027205937 0.19599998 2500385
0.78126895 -0.028692819 0.19599998 2303776
0.78126895 -0.030179694 0.19599998 2369569
0.78126895 -0.031666569 0.19599998 2369569
0.78126895 -0.033153452 0.19599998 2303776
0.78126895 -0.034640327 0.19599998 2369569
0.78126895 -0.036127202 0.19599998 2369569
0.78096795 -0.037412658 0.19699997 2435362
0.78096795 -0.038896918 0.19699997 2435362
0.78096795 -0.040381186 0.19699997 2566178
0.78096795 -0.041865446 0.19699997 2631971
0.78096795 -0.043349713 0.19699997 2435364
0.78096795 -0.044833981 0.19699997 2501157
0.78096795 -0.04631824 0.19699997 2566950
0.78066695 -0.04758279 0.19799995 2697766
0.78066695 -0.049064435 0.19799995 2697766
0.78096795 -0.050771035 0.19699997 2829352
0.78096795 -0.052255295 0.19699997 2895145
0.78096795 -0.053739555 0.19699997 2829352
0.78096795 -0.05522383 0.19699997 2829352
0.78096795 -0.05670809 0.19699997 2697766
0.78096795 -0.05819235 0.19699997 2697766
0.78096795 -0.059676625 0.19699997 2566950
0.78096795 -0.061160885 0.19699997 2764329
0.78096795 -0.062645145 0.19699997 2895913
0.78096795 -0.06412942 0.19699997 2830120
0.78096795 -0.06561368 0.19699997 2961706
0.78096795 -0.06709794 0.19699997 3158315
0.78096795 -0.0685822 0.19699997 3092522
0.78096795 -0.070066474 0.19699997 3092524
0.78096795 -0.071550734 0.19699997 3092524
0.78096795 -0.073034994 0.19699997 3158317
0.78096795 -0.074519254 0.19699997 3092524
0.78126895 -0.076272897 0.19599998 3092524
0.78156996 -0.078031771 0.19499993 3421489
0.78217196 -0.080070458 0.19299996 3553075
0.78366107 0.032768037 0.18299997 5394504
0.78306431 0.031404413 0.18499994 1249040
0.78246754 0.030051246 0.18699998 1972763
0.78187072 0.028708532 0.18899995 2566178
0.78187072 0.027203362 0.18899995 2368799
0.78157234 0.025787257 0.18999994 2105629
0.78127396 0.024376381 0.19099998 2171422
0.78097558 0.022970729 0.19199997 2171422
0.78097558 0.0214734 0.19199997 2237215
0.7806772 0.020075586 0.19299996 2237215
0.7806772 0.018580869 0.19299996 2039836
0.78037882 0.017190892 0.19399995 2171422
0.78037882 0.015698791 0.19399995 2171422
0.78008044 0.014316656 0.19499993 2105629
0.78008044 0.012827165 0.19499993 2106399
0.78008044 0.011337675 0.19499993 2106399
0.78008044 0.0098481849 0.19499993 2040606
0.78008044 0.0083586946 0.19499993 2040606
0.77978206 0.0069922432 0.19599998 2237985
0.77978206 0.0055053681 0.19599998 2303778
0.77978206 0.004018493 0.19599998 2106399
0.77978206 0.0025316104 0.19599998 2368801
0.78008044 0.00091123581 0.19499993 2171422
0.77978206 -0.00044214725 0.19599998 2368801
0.77978206 -0.0019290224 0.19599998 2434594
0.77978206 -0.0034158975 0.19599998 2434594
0.78008044 -0.0050467253 0.19499993 2237213
0.78008044 -0.0065362155 0.19499993 2368799
0.78008044 -0.0080257058 0.19499993 2368799
0.78008044 -0.0095151961 0.19499993 2368799
0.78008044 -0.011004694 0.19499993 2237213
0.78008044 -0.012494184 0.19499993 2566178
0.78008044 -0.013983674 0.19499993 2566178
0.78008044 -0.015473157 0.19499993 2500385
0.78008044 -0.016962647 0.19499993 2434592
0.78008044 -0.018452138 0.19499993 2434592
0.78008044 -0.019941628 0.19499993 2434592
0.77978206 -0.021258429 0.19599998 2368799
0.77978206 -0.022745304 0.19599998 2500385
0.77978206 -0.024232179 0.19599998 2566178
0.77948368 -0.025538534 0.19699997 2566178
0.77948368 -0.027022801 0.19699997 2500385
0.77948368 -0.028507069 0.19699997 2303776
0.77948368 -0.029991329 0.19699997 2369569
0.77948368 -0.031475596 0.19699997 2369569
0.77948368 -0.032959864 0.19699997 2369569
0.77948368 -0.034444124 0.19699997 2369569
0.77948368 -0.035928391 0.19699997 2369569
0.77948368 -0.037412658 0.19699997 2435362
0.77948368 -0.038896918 0.19699997 2501155
0.7791853 -0.040174529 0.19799995 2566178
0.7791853 -0.041656181 0.19799995 2631971
0.7791853 -0.043137833 0.19799995 2631971
0.7791853 -0.044619486 0.19799995 2631971
0.77888691 -0.045884028 0.19899994 2697764
0.77888691 -0.047363065 0.19899994 2697766
0.77888691 -0.048842095 0.19899994 2697766
0.7791853 -0.050546087 0.19799995 2829352
0.7791853 -0.05202774 0.19799995 2829352
0.7791853 -0.053509392 0.19799995 2829352
0.7791853 -0.054991044 0.19799995 2829352
0.7791853 -0.056472696 0.19799995 2829352
0.7791853 -0.057954349 0.19799995 2829352
0.7791853 -0.059435986 0.19799995 2697766
0.7791853 -0.060917638 0.19799995 2698536
0.7791853 -0.062399291 0.19799995 2895913
0.7791853 -0.063880943 0.19799995 2895913
0.7791853 -0.06536261 0.19799995 3026729
0.7791853 -0.066844247 0.19799995 3092522
0.7791853 -0.0683259 0.19799995 3092522
0.7791853 -0.069807552 0.19799995 3092522
0.7791853 -0.071289204 0.19799995 3092522
0.7791853 -0.072770856 0.19799995 3158315
0.7791853 -0.074252509 0.19799995 3026729
0.77948368 -0.076003529 0.19699997 3158317
0.77978206 -0.077759765 0.19599998 3421236
0.7806772 -0.080070458 0.19299996 3487029
0.78097558 -0.08184237 0.19199997 4999492
0.7818445 0.032844037 0.18399996 5591883
0.78125292 0.031483024 0.18599993 1249040
0.78066134 0.030132473 0.18799996 1906970
0.78036559 0.028708532 0.18899995 2631714
0.78006983 0.027289812 0.18999994 2369053
0.77977407 0.025876325 0.19099998 2105627
0.77947825 0.024468061 0.19199997 2303776
0.77947825 0.022970729 0.19199997 2106397
0.77918249 0.021570303 0.19299996 2237215
0.77888674 0.020175103 0.19399995 2105629
0.77888674 0.018682998 0.19399995 2039836
0.77859098 0.017295636 0.19499993 2105629
0.77859098 0.015806146 0.19499993 2171422
0.77859098 0.014316656 0.19499993 2105629
0.77859098 0.012827165 0.19499993 2171422
0.77859098 0.011337675 0.19499993 2237215
0.77829516 0.0099660009 0.19599998 2237215
0.77829516 0.0084791258 0.19599998 2171422
0.77829516 0.0069922432 0.19599998 2368801
0.77829516 0.0055053681 0.19599998 2434594
0.77829516 0.004018493 0.19599998 2237215
0.77829516 0.0025316104 0.19599998 2368801
0.77829516 0.0010447353 0.19599998 2171422
0.77829516 -0.00044214725 0.19599998 2368801
0.77829516 -0.0019290224 0.19599998 2434594
0.77829516 -0.0034158975 0.19599998 2434594
0.77829516 -0.0049027801 0.19599998 2368801
0.77829516 -0.0063896552 0.19599998 2368801
0.77829516 -0.0078765303 0.19599998 2434594
0.77829516 -0.0093634129 0.19599998 2434592
0.77859098 -0.011004694 0.19499993 2434592
0.77859098 -0.012494184 0.19499993 2566178
0.77829516 -0.013824046 0.19599998 2566178
0.77829516 -0.015310913 0.19599998 2500385
0.77829516 -0.016797796 0.19599998 2500385
0.77829516 -0.018284671 0.19599998 2500385
0.77829516 -0.019771546 0.19599998 2500385
0.77829516 -0.021258429 0.19599998 2434592
0.7779994 -0.022570007 0.19699997 2566178
0.7779994 -0.024054274 0.19699997 2566178
0.7779994 -0.025538534 0.19699997 2566178
0.7779994 -0.027022801 0.19699997 2566178
0.7779994 -0.028507069 0.19699997 2500385
0.7779994 -0.029991329 0.19699997 2369569
0.7779994 -0.031475596 0.19699997 2369569
0.7779994 -0.032959864 0.19699997 2435364
0.77770364 -0.03424792 0.19799995 2501157
0.77770364 -0.035729572 0.19799995 2697766
0.77770364 -0.037211224 0.19799995 2895145
0.77770364 -0.038692877 0.19799995 2631973
0.77770364 -0.040174529 0.19799995 2697766
0.77770364 -0.041656181 0.19799995 2697766
0.77740788 -0.042925954 0.19899994 2631973
0.77740788 -0.044404991 0.19899994 2697766
0.77740788 -0.045884028 0.19899994 2829352
0.77740788 -0.047363065 0.19899994 2829352
0.77740788 -0.048842095 0.19899994 2829352
0.77740788 -0.050321139 0.19899994 2697766
0.77740788 -0.051800169 0.19899994 2895145
0.77740788 -0.053279214 0.19899994 2895145
0.77740788 -0.054758258 0.19899994 2829352
0.77740788 -0.056237288 0.19899994 2829352
0.77740788 -0.057716332 0.19899994 2829352
0.77740788 -0.059195362 0.19899994 2829352
0.77740788 -0.060674407 0.19899994 2895145
0.77740788 -0.062153451 0.19899994 3026729
0.77740788 -0.063632481 0.19899994 3026729
0.77740788 -0.065111525 0.19899994 3026729
0.77740788 -0.066590555 0.19899994 3092522
0.77740788 -0.068069585 0.19899994 3092522
0.77740788 -0.069548644 0.19899994 3092522
0.77740788 -0.071027674 0.19899994 3158315
0.77740788 -0.072506718 0.19899994 3158315
0.77770364 -0.074252509 0.19799995 3092522
0.77770364 -0.075734161 0.19799995 3289903
0.77829516 -0.077759765 0.19599998 3421236
0.77859098 -0.079521261 0.19499993 3552822
0.77947825 -0.08184237 0.19199997 4736320
0.78032625 0.032844037 0.18399996 5394504
0.77973992 0.031483024 0.18599993 1380879
0.77886045 0.030213699 0.18899995 1973016
0.77856725 0.02879237 0.18999994 2697761
0.77856725 0.027289812 0.18999994 2500382
0.77827406 0.025876325 0.19099998 2171420
0.77798092 0.024468061 0.19199997 2435362
0.77768779 0.023065019 0.19299996 2303776
0.77739465 0.021667205 0.19399995 2106399
0.77710146 0.020274621 0.19499993 2040606
0.77710146 0.018785127 0.19499993 1974813
0.77710146 0.017295636 0.19499993 2171422
0.77710146 0.015806146 0.19499993 2237215
0.77680826 0.014426634 0.19599998 2237215
0.77680826 0.012939751 0.19599998 2237215
0.77680826 0.011452876 0.19599998 2368801
0.77680826 0.0099660009 0.19599998 2237215
0.77651513 0.0085995421 0.19699997 2237215
0.77651513 0.0071152821 0.19699997 2434594
0.77651513 0.0056310147 0.19699997 2368801
0.77651513 0.0041467473 0.19699997 2368801
0.77651513 0.0026624873 0.19699997 2368801
0.77651513 0.0011782199 0.19699997 2368801
0.77651513 -0.0003060475 0.19699997 2368801
0.77651513 -0.0017903075 0.19699997 2434594
0.77651513 -0.0032745749 0.19699997 2434594
0.77651513 -0.0047588348 0.19699997 2434594
0.77651513 -0.0062431023 0.19699997 2434594
0.77680826 -0.0078765303 0.19599998 2434594
0.77680826 -0.0093634129 0.19599998 2434594
0.77680826 -0.010850288 0.19599998 2566180
0.77680826 -0.012337171 0.19599998 2566178
0.77680826 -0.013824046 0.19599998 2566178
0.77680826 -0.015310913 0.19599998 2566178
0.77680826 -0.016797796 0.19599998 2566178
0.77651513 -0.018117212 0.19699997 2631714
0.77651513 -0.019601479 0.19699997 3026472
0.77651513 -0.021085739 0.19699997 2500385
0.77651513 -0.022570007 0.19699997 2566178
0.77622199 -0.023876362 0.19799995 2631971
0.77622199 -0.025358014 0.19799995 2631971
0.77622199 -0.026839666 0.19799995 2566178
0.77622199 -0.028321318 0.19799995 2566178
0.77622199 -0.029802971 0.19799995 2566178
0.77622199 -0.031284623 0.19799995 2369569
0.77622199 -0.032766275 0.19799995 2501155
0.77622199 -0.03424792 0.19799995 2698534
0.77622199 -0.035729572 0.19799995 2764327
0.77622199 -0.037211224 0.19799995 2895143
0.77592885 -0.038488835 0.19899994 2697764
0.77592885 -0.039967872 0.19899994 2829350
0.77592885 -0.041446917 0.19899994 2829350
0.77592885 -0.042925954 0.19899994 2697764
0.77592885 -0.044404991 0.19899994 2829350
0.77563566 -0.045666911 0.19999999 2829352
0.77563566 -0.047143333 0.19999999 2895145
0.77563566 -0.048619755 0.19999999 2895145
0.77563566 -0.050096177 0.19999999 2829352
0.77563566 -0.051572599 0.19999999 2895145
0.77563566 -0.053049035 0.19999999 2895145
0.77563566 -0.054525457 0.19999999 2895145
0.77563566 -0.056001879 0.19999999 2829352
0.77563566 -0.057478301 0.19999999 2829352
0.77563566 -0.058954723 0.19999999 2895145
0.77563566 -0.06043116 0.19999999 2960938
0.77563566 -0.061907582 0.19999999 3092522
0.77563566 -0.063384004 0.19999999 3026729
0.77563566 -0.064860441 0.19999999 3092522
0.77563566 -0.066336863 0.19999999 3158315
0.77563566 -0.06781327 0.19999999 3026729
0.77563566 -0.069289707 0.19999999 3026729
0.77563566 -0.070766129 0.19999999 3092522
0.77563566 -0.072242551 0.19999999 3158315
0.77592885 -0.073985748 0.19899994 3355694
0.77622199 -0.075734161 0.19799995 3289901
0.77651513 -0.077487789 0.19699997 3421236
0.77710146 -0.079521261 0.19499993 3618615
0.77768779 -0.081565164 0.19299996 4209978
0.77851748 0.032920036 0.18499994 5197125
0.77793634 0.031561643 0.18699998 1512465
0.77735525 0.030213699 0.18899995 1907223
0.77706468 0.02879237 0.18999994 2697507
0.77677417 0.027376268 0.19099998 2500382
0.7764836 0.025965389 0.19199997 2434335
0.77619308 0.024559736 0.19299996 2435362
0.77590251 0.02315931 0.19399995 2369569
0.775612 0.021764111 0.19499993 2106399
0.775612 0.020274621 0.19499993 2106399
0.77532142 0.018887263 0.19599998 2237985
0.77532142 0.017400388 0.19599998 2237215
0.77532142 0.015913509 0.19599998 2368801
0.77532142 0.014426634 0.19599998 2237215
0.77503085 0.013052337 0.19699997 2368801
0.77503085 0.011568077 0.19699997 2368801
0.77503085 0.010083809 0.19699997 2237215
0.77503085 0.0085995421 0.19699997 2237215
0.77474034 0.0072383136 0.19799995 2434594
0.77474034 0.0057566613 0.19799995 2434594
0.77474034 0.004275009 0.19799995 2434594
0.77474034 0.0027933568 0.19799995 2368801
0.77474034 0.001311712 0.19799995 2434594
0.77474034 -0.00016994029 0.19799995 2434594
0.77503085 -0.0017903075 0.19699997 2434594
0.77503085 -0.0032745749 0.19699997 2434594
0.77503085 -0.0047588348 0.19699997 2434594
0.77503085 -0.0062431023 0.19699997 2434594
0.77503085 -0.0077273697 0.19699997 2434594
0.77503085 -0.0092116296 0.19699997 2434594
0.77503085 -0.010695897 0.19699997 2566180
0.77503085 -0.012180164 0.19699997 2500385
0.77503085 -0.013664424 0.19699997 2566178
0.77503085 -0.015148684 0.19699997 2566178
0.77503085 -0.016632944 0.19699997 2631971
0.77503085 -0.018117212 0.19699997 2631971
0.77503085 -0.019601479 0.19699997 3026729
0.77474034 -0.020913057 0.19799995 2631971
0.77474034 -0.022394709 0.19799995 2697507
0.77474034 -0.023876362 0.19799995 2763300
0.77474034 -0.025358014 0.19799995 2829350
0.77474034 -0.026839666 0.19799995 2697764
0.77474034 -0.028321318 0.19799995 2829350
0.77474034 -0.029802971 0.19799995 2631971
0.77474034 -0.031284623 0.19799995 2631971
0.77474034 -0.032766275 0.19799995 2566948
0.77474034 -0.03424792 0.19799995 2698536
0.77444983 -0.035530761 0.19899994 2764329
0.77444983 -0.037009798 0.19899994 2960938
0.77444983 -0.038488835 0.19899994 2895143
0.77444983 -0.039967872 0.19899994 2829350
0.77444983 -0.041446917 0.19899994 2829350
0.77415919 -0.042714059 0.19999999 2697764
0.77415919 -0.044190481 0.19999999 2895143
0.77415919 -0.045666911 0.19999999 2829350
0.77415919 -0.047143333 0.19999999 2895145
0.77415919 -0.048619755 0.19999999 2960938
0.77415919 -0.050096177 0.19999999 2960938
0.77415919 -0.051572599 0.19999999 2764329
0.77415919 -0.053049035 0.19999999 2830122
0.77415919 -0.054525457 0.19999999 2960938
0.77415919 -0.056001879 0.19999999 2960938
0.77415919 -0.057478301 0.19999999 2895145
0.77386868 -0.058714099 0.20099998 3092524
0.77386868 -0.060187913 0.20099998 3092524
0.77386868 -0.061661728 0.20099998 3092524
0.77386868 -0.063135542 0.20099998 3026731
0.77386868 -0.064609356 0.20099998 3092522
0.77386868 -0.06608317 0.20099998 3026729
0.77386868 -0.06755697 0.20099998 3026729
0.77415919 -0.069289707 0.19999999 2895143
0.77415919 -0.070766129 0.19999999 2895143
0.77415919 -0.072242551 0.19999999 3092524
0.77415919 -0.073718973 0.19999999 3289903
0.77444983 -0.075464793 0.19899994 3289901
0.77503085 -0.077487789 0.19699997 3355443
0.775612 -0.079521261 0.19499993 3552822
0.77619308 -0.081565164 0.19299996 3881530
0.7770018 0.032920036 0.18499994 5000516
0.77642596 0.031561643 0.18699998 1709844
0.77585006 0.030213699 0.18899995 1907223
0.77527422 0.028876211 0.19099998 2697507
0.77527422 0.027376268 0.19099998 2500128
0.77498627 0.025965389 0.19199997 2500128
0.77469838 0.024559736 0.19299996 2369569
0.77412248 0.023253601 0.19499993 2303776
0.77412248 0.021764111 0.19499993 2237983
0.77412248 0.020274621 0.19499993 2237983
0.77383453 0.018887263 0.19599998 2303776
0.77383453 0.017400388 0.19599998 2368799
0.77354658 0.016020864 0.19699997 2434592
0.77354658 0.014536601 0.19699997 2368799
0.77354658 0.013052337 0.19699997 2368799
0.77354658 0.011568077 0.19699997 2368799
0.77325869 0.010201618 0.19799995 2434594
0.77325869 0.0087199658 0.19799995 2434594
0.77325869 0.0072383136 0.19799995 2434594
0.77325869 0.0057566613 0.19799995 2434594
0.77325869 0.004275009 0.19799995 2434594
0.77325869 0.0027933568 0.19799995 2434594
0.77325869 0.001311712 0.19799995 2500387
0.77325869 -0.00016994029 0.19799995 2303778
0.77325869 -0.0016515926 0.19799995 2303778
0.77325869 -0.0031332448 0.19799995 2369571
0.77325869 -0.0046148971 0.19799995 2303778
0.77325869 -0.0060965493 0.19799995 2369571
0.77325869 -0.0075782016 0.19799995 2369571
0.77325869 -0.0090598539 0.19799995 2369571
0.77354658 -0.010695897 0.19699997 2500387
0.77354658 -0.012180164 0.19699997 2500387
0.77354658 -0.013664424 0.19699997 2566180
0.77325869 -0.014986448 0.19799995 2631973
0.77325869 -0.0164681 0.19799995 2697766
