# .PCD v0.7 - Point Cloud Data file format
VERSION 0.7
FIELDS x y z rgb
SIZE 4 4 4 4
TYPE F F F U
COUNT 1 1 1 1
WIDTH 1118
HEIGHT 1
VIEWPOINT 0 0 0 1 0 0 0
POINTS 1118
DATA ascii
0.72965151 -0.070758335 0.16399997 1909020
0.72965151 -0.072328828 0.16399997 2237732
0.72985059 -0.074150436 0.16299993 2303525
0.73004967 -0.075977229 0.16199994 2303525
0.73024875 -0.077809237 0.16099995 2172709
0.73024875 -0.079387583 0.16099995 2172709
0.73044783 -0.081227444 0.15999997 2238502
0.73064691 -0.083072551 0.15899998 2435111
0.73084605 -0.084922872 0.15799993 2500904
0.73084605 -0.086509056 0.15799993 2566697
0.73104513 -0.088367216 0.15699995 2764076
0.73104513 -0.089956008 0.15699995 3026478
0.73124421 -0.091822006 0.15599996 5262666
0.72984928 0.03064004 0.15499997 3617147
0.72984928 0.029046025 0.15499997 3617147
0.72984928 0.024263978 0.15499997 2108242
0.72965276 0.022759028 0.15599996 2370101
0.72945631 0.0212593 0.15699995 2304308
0.72945631 0.019670509 0.15699995 2435115
0.72925985 0.018178623 0.15799993 2500906
0.72925985 0.016592447 0.15799993 2500904
0.72906339 0.015108403 0.15899998 2369318
0.72906339 0.013524838 0.15899998 2106146
0.72886688 0.012048632 0.15999997 2040353
0.72886688 0.010467678 0.15999997 1777181
0.72867042 0.0089993104 0.16099995 1645595
0.72867042 0.0074209794 0.16099995 1514009
0.72847396 0.0059604496 0.16199994 1514009
0.7282775 0.00450515 0.16299993 1579802
0.7282775 0.0029320344 0.16299993 1514009
0.72808099 0.0014845803 0.16399997 1579802
0.72808099 -8.5920095e-05 0.16399997 1645595
0.72788453 -0.0015255436 0.16499996 1514009
0.72768807 -0.0029599443 0.16599995 1579802
0.72749156 -0.0043891147 0.16699994 1645595
0.72749156 -0.0059517696 0.16699994 1645595
0.7272951 -0.0073730946 0.16799998 1645595
0.7272951 -0.0089331418 0.16799998 1777181
0.72690213 -0.010200083 0.16999996 1974560
0.72690213 -0.0117549 0.16999996 2106146
0.72670567 -0.013157941 0.17099994 2237732
0.72670567 -0.014710151 0.17099994 2106146
0.72650921 -0.016105354 0.17199993 2040353
0.72631276 -0.017495319 0.17299998 2040353
0.72611624 -0.018880054 0.17399997 2040353
0.72611624 -0.020424426 0.17399997 2040353
0.72611624 -0.021968789 0.17399997 2237732
0.72591978 -0.023343086 0.17499995 2303525
0.72591978 -0.024884842 0.17499995 2303778
0.72591978 -0.026426591 0.17499995 2369318
0.72591978 -0.027968347 0.17499995 2369318
0.72591978 -0.029510103 0.17499995 2303525
0.72591978 -0.031051859 0.17499995 2303525
0.72591978 -0.032593608 0.17499995 2237732
0.72591978 -0.034135364 0.17499995 2236962
0.72611624 -0.035868093 0.17399997 2236962
0.72611624 -0.037412457 0.17399997 2434341
0.72611624 -0.038956828 0.17399997 2500134
0.72611624 -0.040501192 0.17399997 2631973
0.72611624 -0.042045563 0.17399997 2434594
0.72611624 -0.043589927 0.17399997 2171422
0.72631276 -0.045340948 0.17299998 2039836
0.72631276 -0.046887934 0.17299998 1974043
0.72631276 -0.048434906 0.17299998 1974043
0.72650921 -0.050196402 0.17199993 1974043
0.72650921 -0.051745988 0.17199993 1776664
0.72670567 -0.053515308 0.17099994 1776664
0.72670567 -0.055067502 0.17099994 1710871
0.72670567 -0.056619711 0.17099994 1645848
0.72690213 -0.058399476 0.16999996 1645848
0.72709864 -0.060184471 0.16899997 1580055
0.7272951 -0.061974682 0.16799998 1580055
0.72749156 -0.063770138 0.16699994 1514262
0.72749156 -0.065332808 0.16699994 1514262
0.72768807 -0.067136087 0.16599995 1580055
0.72788453 -0.068944596 0.16499996 1843227
0.72808099 -0.070758335 0.16399997 1974813
0.72808099 -0.072328828 0.16399997 2237732
0.7282775 -0.074150436 0.16299993 2237732
0.7282775 -0.075723536 0.16299993 2106916
0.72867042 -0.077809237 0.16099995 2172709
0.72867042 -0.079387583 0.16099995 2172709
0.72886688 -0.081227444 0.15999997 2369318
0.72906339 -0.083072551 0.15899998 2369318
0.72925985 -0.084922872 0.15799993 2435111
0.72925985 -0.086509056 0.15799993 2698283
0.72925985 -0.088095225 0.15799993 2698283
0.72945631 -0.089956008 0.15699995 3026478
0.72945631 -0.0915448 0.15699995 4474177
0.72825527 0.03064004 0.15499997 3748735
0.72825527 0.029046025 0.15499997 3748735
0.72806138 0.024350431 0.15599996 2107990
0.72806138 0.022759028 0.15599996 2370101
0.72786754 0.0212593 0.15699995 2304308
0.72767365 0.0197648 0.15799993 2435115
0.72767365 0.018178623 0.15799993 2500906
0.72767365 0.016592447 0.15799993 2500904
0.72747982 0.015108403 0.15899998 2369318
0.72728592 0.013629586 0.15999997 2106146
0.72728592 0.012048632 0.15999997 2040353
0.72709209 0.010577649 0.16099995 1777181
0.72709209 0.0089993104 0.16099995 1579802
0.72689825 0.0075361729 0.16199994 1514009
0.72670436 0.0060782582 0.16299993 1514009
0.72670436 0.00450515 0.16299993 1579802
0.72651052 0.0030550808 0.16399997 1514009
0.72631663 0.0016102269 0.16499996 1579802
0.7261228 0.00017060339 0.16599995 1579802
0.7261228 -0.0013946667 0.16599995 1514009
0.7259289 -0.0028264523 0.16699994 1579802
0.7259289 -0.0043891147 0.16699994 1645595
0.72573507 -0.0058130473 0.16799998 1777181
0.72554117 -0.0072317719 0.16899997 1777181
0.72534734 -0.0086452663 0.16999996 1842974
0.72534734 -0.010200083 0.16999996 1974560
0.72515345 -0.01160574 0.17099994 2040353
0.72495961 -0.013006166 0.17199993 2237732
0.72495961 -0.01455576 0.17199993 2237732
0.72495961 -0.016105354 0.17199993 2040353
0.72457188 -0.017335698 0.17399997 2040353
0.72457188 -0.018880054 0.17399997 2040353
0.72457188 -0.020424426 0.17399997 2040353
0.72437805 -0.02180133 0.17499995 2237732
0.72437805 -0.023343086 0.17499995 2237732
0.72437805 -0.024884842 0.17499995 2303525
0.72437805 -0.026426591 0.17499995 2369318
0.72437805 -0.027968347 0.17499995 2303525
0.72437805 -0.029510103 0.17499995 2303525
0.72437805 -0.031051859 0.17499995 2237732
0.72437805 -0.032593608 0.17499995 2106146
0.72437805 -0.034135364 0.17499995 2236962
0.72437805 -0.03567712 0.17499995 2368548
0.72437805 -0.037218869 0.17499995 2434341
0.72437805 -0.038760625 0.17499995 2631720
0.72437805 -0.040302381 0.17499995 2960938
0.72457188 -0.042045563 0.17399997 2368801
0.72457188 -0.043589927 0.17399997 2171169
0.72457188 -0.045134299 0.17399997 2039583
0.72457188 -0.046678662 0.17399997 1973790
0.72476578 -0.048434906 0.17299998 2039836
0.72476578 -0.049981885 0.17299998 1974043
0.72495961 -0.051745988 0.17199993 1776664
0.72495961 -0.05329559 0.17199993 1776664
0.72515345 -0.055067502 0.17099994 1710871
0.72515345 -0.056619711 0.17099994 1645848
0.72534734 -0.058399476 0.16999996 1777434
0.72554117 -0.060184471 0.16899997 1645848
0.72573507 -0.061974682 0.16799998 1580055
0.7259289 -0.063770138 0.16699994 1448469
0.7259289 -0.065332808 0.16699994 1514262
0.7261228 -0.067136087 0.16599995 1580055
0.72631663 -0.068944596 0.16499996 1842974
0.72651052 -0.070758335 0.16399997 1974560
0.72670436 -0.072577305 0.16299993 2237732
0.72670436 -0.074150436 0.16299993 2237732
0.72689825 -0.075977229 0.16199994 2106916
0.72689825 -0.077552937 0.16199994 2172709
0.72709209 -0.079387583 0.16099995 2172709
0.72728592 -0.081227444 0.15999997 2369318
0.72728592 -0.082808413 0.15999997 2369318
0.72747982 -0.084656112 0.15899998 2435111
0.72767365 -0.086509056 0.15799993 2566697
0.72767365 -0.088095225 0.15799993 2764076
0.72786754 -0.089956008 0.15699995 2895662
0.72786754 -0.0915448 0.15699995 4408384
0.72666121 0.03064004 0.15499997 3617408
0.72666121 0.029046025 0.15499997 3683201
0.72646999 0.024350431 0.15599996 2107992
0.72627872 0.022848092 0.15699995 2369849
0.72627872 0.0212593 0.15699995 2304056
0.72608751 0.0197648 0.15799993 2304299
0.72608751 0.018178623 0.15799993 2500906
0.72589624 0.016691968 0.15899998 2500906
0.72570503 0.015210535 0.15999997 2369318
0.72570503 0.013629586 0.15999997 2106146
0.72551376 0.012155987 0.16099995 2040353
0.72551376 0.010577649 0.16099995 1777181
0.72532248 0.0091118962 0.16199994 1579802
0.72513127 0.0076513737 0.16299993 1514009
0.72513127 0.0060782582 0.16299993 1514009
0.72494 0.0046255738 0.16399997 1514009
0.72474873 0.0031781122 0.16499996 1514009
0.72455752 0.0017358735 0.16599995 1579802
0.72436625 0.00029886514 0.16699994 1579802
0.72436625 -0.0012637973 0.16699994 1514009
0.72417498 -0.0026929602 0.16799998 1579802
0.72417498 -0.0042530075 0.16799998 1645595
0.72398376 -0.0056743398 0.16899997 1777181
0.72379249 -0.0070904419 0.16999996 1777181
0.72360128 -0.0085013211 0.17099994 1908767
0.72360128 -0.01005353 0.17099994 1974560
0.72341001 -0.011456572 0.17199993 2040353
0.72341001 -0.013006166 0.17199993 2106146
0.7232188 -0.014401354 0.17299998 2237732
0.72302753 -0.015791334 0.17399997 2236962
0.72302753 -0.017335698 0.17399997 2171169
0.72283626 -0.018717825 0.17499995 2236962
0.72283626 -0.020259582 0.17499995 2236962
0.72283626 -0.02180133 0.17499995 2368548
0.72264504 -0.023173019 0.17599994 2368548
0.72264504 -0.024712153 0.17599994 2434341
0.72264504 -0.026251294 0.17599994 2500134
0.72264504 -0.027790435 0.17599994 2434341
0.72264504 -0.029329576 0.17599994 2368548
0.72264504 -0.030868717 0.17599994 2434341
0.72264504 -0.032407857 0.17599994 2236962
0.72264504 -0.033946998 0.17599994 2368548
0.72264504 -0.035486139 0.17599994 2368548
0.72283626 -0.037218869 0.17499995 2434341
0.72283626 -0.038760625 0.17499995 2631720
0.72283626 -0.040302381 0.17499995 2960685
0.72283626 -0.041844137 0.17499995 2368550
0.72283626 -0.043385886 0.17499995 2171171
0.72302753 -0.045134299 0.17399997 2039583
0.72302753 -0.046678662 0.17399997 1973790
0.72302753 -0.048223026 0.17399997 2039836
0.7232188 -0.049981885 0.17299998 1908250
0.72341001 -0.051745988 0.17199993 1776664
0.72341001 -0.05329559 0.17199993 1776664
0.72360128 -0.055067502 0.17099994 1710871
0.72379249 -0.056844659 0.16999996 1645848
0.72379249 -0.058399476 0.16999996 1645848
0.72398376 -0.060184471 0.16899997 1645848
0.72417498 -0.061974682 0.16799998 1580055
0.72436625 -0.063770138 0.16699994 1514262
0.72455752 -0.065570809 0.16599995 1514262
0.72455752 -0.067136087 0.16599995 1514262
0.72474873 -0.068944596 0.16499996 1842974
0.72494 -0.070758335 0.16399997 1974560
0.72513127 -0.072577305 0.16299993 2237732
0.72513127 -0.074150436 0.16299993 2237732
0.72532248 -0.075977229 0.16199994 2237732
0.72532248 -0.077552937 0.16199994 2172709
0.72551376 -0.079387583 0.16099995 2172709
0.72551376 -0.080965914 0.16099995 2172709
0.72570503 -0.082808413 0.15999997 2303525
0.72570503 -0.084389351 0.15999997 2435111
0.72608751 -0.086509056 0.15799993 2698283
0.72608751 -0.088095225 0.15799993 2764076
0.72608751 -0.089681424 0.15799993 2895662
0.72627872 -0.0915448 0.15699995 4539713
0.72468996 0.02443688 0.15699995 2107992
0.72468996 0.022848092 0.15699995 2369851
0.72450131 0.021350976 0.15799993 2304058
0.72450131 0.0197648 0.15799993 2434861
0.72450131 0.018178623 0.15799993 2500906
0.72431266 0.016691968 0.15899998 2500906
0.72412407 0.015210535 0.15999997 2369318
0.72412407 0.013629586 0.15999997 2106146
0.72393543 0.012155987 0.16099995 1974560
0.72374678 0.010687619 0.16199994 1777181
0.72355813 0.0092244744 0.16299993 1579802
0.72355813 0.0076513737 0.16299993 1448216
0.72336948 0.0061960742 0.16399997 1448216
0.72318089 0.0047459975 0.16499996 1514009
0.72299224 0.0033011436 0.16599995 1514009
0.72280359 0.0018615201 0.16699994 1514009
0.72261494 0.00042713434 0.16799998 1514009
0.72261494 -0.0011329129 0.16799998 1579802
0.72242635 -0.0025594682 0.16899997 1579802
0.72223771 -0.0039808005 0.16999996 1645595
0.72223771 -0.0055356249 0.16999996 1777181
0.72204906 -0.0069491193 0.17099994 1777181
0.72204906 -0.0085013211 0.17099994 1908767
0.72186041 -0.0099069774 0.17199993 1974560
0.72186041 -0.011456572 0.17199993 2040353
0.72167182 -0.012854375 0.17299998 2106146
0.72148317 -0.014246963 0.17399997 2237732
0.72148317 -0.015791334 0.17399997 2236962
0.72129452 -0.017176077 0.17499995 2171169
0.72129452 -0.018717825 0.17499995 2236962
0.72110587 -0.020094737 0.17599994 2171169
0.72110587 -0.021633878 0.17599994 2368548
0.72110587 -0.023173019 0.17599994 2434341
0.72110587 -0.024712153 0.17599994 2434341
0.72091722 -0.026075989 0.17699999 2500134
0.72091722 -0.027612515 0.17699999 2434341
0.72091722 -0.029149048 0.17699999 2434341
0.72091722 -0.030685574 0.17699999 2368548
0.72091722 -0.0322221 0.17699999 2236962
0.72091722 -0.033758625 0.17699999 2434341
0.72110587 -0.035486139 0.17599994 2368548
0.72110587 -0.03702528 0.17599994 2434341
0.72110587 -0.038564421 0.17599994 2631720
0.72110587 -0.040103562 0.17599994 2894892
0.72110587 -0.041642703 0.17599994 2368548
0.72129452 -0.043385886 0.17499995 2171171
0.72129452 -0.044927642 0.17499995 2039583
0.72129452 -0.046469398 0.17499995 2039583
0.72148317 -0.048223026 0.17399997 1973790
0.72167182 -0.049981885 0.17299998 1908250
0.72186041 -0.051745988 0.17199993 1908250
0.72186041 -0.05329559 0.17199993 1710871
0.72204906 -0.055067502 0.17099994 1710871
0.72204906 -0.056619711 0.17099994 1776664
0.72223771 -0.058399476 0.16999996 1645848
0.72242635 -0.060184471 0.16899997 1580055
0.72261494 -0.061974682 0.16799998 1580055
0.72280359 -0.063770138 0.16699994 1514262
0.72299224 -0.065570809 0.16599995 1514262
0.72318089 -0.06737671 0.16499996 1514262
0.72336948 -0.069187827 0.16399997 1842974
0.72336948 -0.070758335 0.16399997 1974560
0.72355813 -0.072577305 0.16299993 2237732
0.72355813 -0.074150436 0.16299993 2237732
0.72355813 -0.075723536 0.16299993 2303525
0.72374678 -0.077552937 0.16199994 2303525
0.72374678 -0.079128675 0.16199994 2303525
0.72393543 -0.080965914 0.16099995 2303525
0.72393543 -0.08254426 0.16099995 2303525
0.72412407 -0.084389351 0.15999997 2435111
0.72431266 -0.086239673 0.15899998 2698283
0.72431266 -0.087823234 0.15899998 2764076
0.72450131 -0.089681424 0.15799993 2895662
0.72450131 -0.091267593 0.15799993 4342334
0.72310114 0.02443688 0.15699995 2370132
0.72310114 0.022848092 0.15699995 2369336
0.72291517 0.021350976 0.15799993 2303543
0.72291517 0.0197648 0.15799993 2304045
0.72272909 0.018275533 0.15899998 2435113
0.72254312 0.016791485 0.15999997 2435113
0.72254312 0.015210535 0.15999997 2303527
0.72235709 0.013734326 0.16099995 1974562
0.72235709 0.012155987 0.16099995 1974562
0.72217107 0.010687619 0.16199994 1777183
0.72198504 0.0092244744 0.16299993 1514011
0.72179902 0.0077665746 0.16399997 1514011
0.72161299 0.0063138828 0.16499996 1448218
0.72142696 0.0048664212 0.16599995 1514011
0.72124094 0.0034241825 0.16699994 1514011
0.72105491 0.0019871816 0.16799998 1514011
0.72105491 0.00042713434 0.16799998 1579804
0.72068286 -0.00087116659 0.16999996 1579804
0.72068286 -0.0024259835 0.16999996 1579804
0.72049683 -0.0038447008 0.17099994 1645597
0.72049683 -0.00539691 0.17099994 1777181
0.72031081 -0.0068077892 0.17199993 1645595
0.72031081 -0.0083573833 0.17199993 1908767
0.72012484 -0.009760417 0.17299998 1974560
0.71993881 -0.011158228 0.17399997 2040353
0.71993881 -0.012702599 0.17399997 2106146
0.71993881 -0.014246963 0.17399997 2106146
0.71975279 -0.015634328 0.17499995 2171169
0.71975279 -0.017176077 0.17499995 2171169
0.71956676 -0.018555596 0.17599994 2171169
0.71956676 -0.020094737 0.17599994 2171169
0.71956676 -0.021633878 0.17599994 2368548
0.71938074 -0.023002937 0.17699999 2434341
0.71938074 -0.024539463 0.17699999 2631720
0.71919471 -0.025900692 0.17799997 2500134
0.71919471 -0.02743461 0.17799997 2434341
0.71919471 -0.02896852 0.17799997 2434341
0.71919471 -0.030502439 0.17799997 2368548
0.71919471 -0.032036349 0.17799997 2236962
0.71919471 -0.033570267 0.17799997 2368548
0.71919471 -0.035104178 0.17799997 2368548
0.71919471 -0.036638096 0.17799997 2434341
0.71938074 -0.03836821 0.17699999 2697513
0.71956676 -0.040103562 0.17599994 2894892
0.71956676 -0.041642703 0.17599994 2368548
0.71956676 -0.043181844 0.17599994 2171169
0.71975279 -0.044927642 0.17499995 2039583
0.71975279 -0.046469398 0.17499995 2039583
0.71993881 -0.048223026 0.17399997 2039583
0.71993881 -0.049767397 0.17399997 1973790
0.72012484 -0.051528864 0.17299998 1908250
0.72031081 -0.05329559 0.17199993 1710871
0.72049683 -0.055067502 0.17099994 1710871
0.72049683 -0.056619711 0.17099994 1710871
0.72068286 -0.058399476 0.16999996 1776664
0.72105491 -0.060414635 0.16799998 1710871
0.72105491 -0.061974682 0.16799998 1580055
0.72124094 -0.063770138 0.16699994 1580055
0.72142696 -0.065570809 0.16599995 1514262
0.72161299 -0.06737671 0.16499996 1514262
0.72179902 -0.069187827 0.16399997 1908767
0.72179902 -0.070758335 0.16399997 1974560
0.72198504 -0.072577305 0.16299993 2237732
0.72198504 -0.074150436 0.16299993 2303525
0.72198504 -0.075723536 0.16299993 2303525
0.72198504 -0.077296637 0.16299993 2303525
0.72217107 -0.079128675 0.16199994 2303525
0.72217107 -0.080704384 0.16199994 2303525
0.72235709 -0.08254426 0.16099995 2303525
0.72254312 -0.084389351 0.15999997 2435111
0.72254312 -0.085970305 0.15999997 2566697
0.72254312 -0.087551259 0.15999997 2764076
0.72272909 -0.089406811 0.15899998 2961457
0.72291517 -0.091267593 0.15799993 4144702
0.72151238 0.02443688 0.15699995 2370130
0.72151238 0.022848092 0.15699995 2369336
0.72151238 0.0212593 0.15699995 2303543
0.72132897 0.0197648 0.15799993 2304045
0.72132897 0.018178623 0.15799993 2238504
0.72114557 0.016691968 0.15899998 2304297
0.72096217 0.015210535 0.15999997 2237734
0.7207787 0.013734326 0.16099995 1974562
0.7207787 0.012155987 0.16099995 1974562
0.72059536 0.010687619 0.16199994 1777183
0.7204119 0.0092244744 0.16299993 1514011
0.72022849 0.0077665746 0.16399997 1448218
0.71986169 0.0064316913 0.16599995 1448218
0.71967828 0.0049868375 0.16699994 1514011
0.71967828 0.0034241825 0.16699994 1514011
0.71949488 0.0019871816 0.16799998 1514011
0.71912807 0.00068365782 0.16999996 1579804
0.71912807 -0.00087116659 0.16999996 1579804
0.71894467 -0.0022924989 0.17099994 1579804
0.71876127 -0.003708601 0.17199993 1645597
0.71876127 -0.0052581951 0.17199993 1777181
0.71857786 -0.0066664517 0.17299998 1645595
0.71857786 -0.0082134381 0.17299998 1908767
0.7183944 -0.0096138641 0.17399997 1974560
0.7183944 -0.011158228 0.17399997 2040353
0.718211 -0.012550816 0.17499995 2040353
0.718211 -0.014092572 0.17499995 2106146
0.718211 -0.015634328 0.17499995 2040353
0.718211 -0.017176077 0.17499995 2040353
0.71802759 -0.018555596 0.17599994 2040353
0.71802759 -0.020094737 0.17599994 2040353
0.71784419 -0.021466404 0.17699999 2237732
0.71766078 -0.022832863 0.17799997 2369318
0.71766078 -0.024366781 0.17799997 2435111
0.71766078 -0.025900692 0.17799997 2369318
0.71766078 -0.02743461 0.17799997 2369318
0.71747738 -0.028788 0.17899996 2303525
0.71747738 -0.030319303 0.17899996 2237732
0.71747738 -0.031850599 0.17899996 2106146
0.71747738 -0.033381902 0.17899996 2237732
0.71766078 -0.035104178 0.17799997 2434341
0.71766078 -0.036638096 0.17799997 2829099
0.71766078 -0.038172007 0.17799997 2829099
0.71766078 -0.039705925 0.17799997 2894892
0.71784419 -0.041441262 0.17699999 2368548
0.71802759 -0.043181844 0.17599994 2236962
0.71802759 -0.044720985 0.17599994 2105376
0.718211 -0.046469398 0.17499995 1973790
0.718211 -0.048011146 0.17499995 2039583
0.7183944 -0.049767397 0.17399997 1973790
0.7183944 -0.051311769 0.17399997 1908250
0.71876127 -0.05329559 0.17199993 1776664
0.71876127 -0.054845162 0.17199993 1776664
0.71894467 -0.056619711 0.17099994 1710871
0.71912807 -0.058399476 0.16999996 1710871
0.71949488 -0.060414635 0.16799998 1710871
0.71967828 -0.062207483 0.16699994 1776664
0.71967828 -0.063770138 0.16699994 1776664
0.71986169 -0.065570809 0.16599995 1645078
0.72004509 -0.06737671 0.16499996 1645078
0.72022849 -0.069187827 0.16399997 1843227
0.72022849 -0.070758335 0.16399997 1974813
0.7204119 -0.072577305 0.16299993 2237732
0.7204119 -0.074150436 0.16299993 2303525
0.7204119 -0.075723536 0.16299993 2237732
0.7204119 -0.077296637 0.16299993 2303525
0.72059536 -0.079128675 0.16199994 2303525
0.72059536 -0.080704384 0.16199994 2303525
0.7207787 -0.08254426 0.16099995 2303525
0.7207787 -0.084122591 0.16099995 2369318
0.72096217 -0.085970305 0.15999997 2566697
0.72096217 -0.087551259 0.15999997 2764076
0.72096217 -0.089132212 0.15999997 2961457
0.72114557 -0.090990357 0.15899998 3618617
0.71992356 0.02443688 0.15699995 2370130
0.71992356 0.022848092 0.15699995 2304058
0.71992356 0.0212593 0.15699995 2238265
0.71974277 0.0197648 0.15799993 2304045
0.71974277 0.018178623 0.15799993 2369320
0.71956199 0.016691968 0.15899998 2435113
0.71938121 0.015210535 0.15999997 2237734
0.71938121 0.013629586 0.15999997 1974562
0.71920037 0.012155987 0.16099995 1974562
0.71901959 0.010687619 0.16199994 1777183
0.71883881 0.0092244744 0.16299993 1514011
0.71865803 0.0077665746 0.16399997 1448218
0.71829641 0.0064316913 0.16599995 1448218
0.71811563 0.0049868375 0.16699994 1448218
0.71793485 0.0035472214 0.16799998 1514011
0.71775401 0.0021128282 0.16899997 1579804
0.71757323 0.00068365782 0.16999996 1579804
0.71739244 -0.00074028969 0.17099994 1579804
0.71721166 -0.0021590069 0.17199993 1514011
0.71721166 -0.003708601 0.17199993 1645597
0.71703082 -0.0051194727 0.17299998 1777183
0.71685004 -0.0065251291 0.17399997 1777181
0.71685004 -0.0080694929 0.17399997 1908767
0.71685004 -0.0096138641 0.17399997 1974560
0.71685004 -0.011158228 0.17399997 1974560
0.71666926 -0.012550816 0.17499995 2040353
0.71666926 -0.014092572 0.17499995 2040353
0.71666926 -0.015634328 0.17499995 2040353
0.71648848 -0.017016463 0.17599994 2040353
0.71648848 -0.018555596 0.17599994 2106146
0.71630764 -0.019929878 0.17699999 2106146
0.71612686 -0.021298952 0.17799997 2237732
0.71612686 -0.022832863 0.17799997 2303525
0.71612686 -0.024366781 0.17799997 2435111
0.71612686 -0.025900692 0.17799997 2369318
0.71594608 -0.027256697 0.17899996 2369318
0.71594608 -0.028788 0.17899996 2303525
0.71594608 -0.030319303 0.17899996 2237732
0.71594608 -0.031850599 0.17899996 2237732
0.71594608 -0.033381902 0.17899996 2369318
0.71594608 -0.034913205 0.17899996 2566699
0.71594608 -0.036444508 0.17899996 3158836
0.71594608 -0.037975803 0.17899996 2566697
0.71612686 -0.039705925 0.17799997 2698283
0.71612686 -0.041239835 0.17799997 2237732
0.71612686 -0.042773753 0.17799997 2236962
0.71630764 -0.044514321 0.17699999 2171169
0.71648848 -0.046260126 0.17599994 2039583
0.71666926 -0.048011146 0.17499995 2039583
0.71666926 -0.04955291 0.17499995 2039583
0.71685004 -0.051311769 0.17399997 1908250
0.71721166 -0.05329559 0.17199993 1908250
0.71721166 -0.054845162 0.17199993 1776664
0.71739244 -0.056619711 0.17099994 1710871
0.71757323 -0.058399476 0.16999996 1710871
0.71793485 -0.060414635 0.16799998 1710871
0.71811563 -0.062207483 0.16699994 1776664
0.71829641 -0.064005546 0.16599995 1776664
0.71829641 -0.065570809 0.16599995 1645078
0.71847719 -0.06737671 0.16499996 1579285
0.71865803 -0.069187827 0.16399997 1842974
0.71865803 -0.070758335 0.16399997 1974560
0.71883881 -0.072577305 0.16299993 2237732
0.71883881 -0.074150436 0.16299993 2303525
0.71883881 -0.075723536 0.16299993 2303525
0.71883881 -0.077296637 0.16299993 2303525
0.71883881 -0.078869753 0.16299993 2303525
0.71901959 -0.080704384 0.16199994 2303525
0.71920037 -0.08254426 0.16099995 2303525
0.71920037 -0.084122591 0.16099995 2369318
0.71938121 -0.085970305 0.15999997 2566697
0.71938121 -0.087551259 0.15999997 2764076
0.71938121 -0.089132212 0.15999997 2961457
0.71956199 -0.090990357 0.15899998 3552824
0.71833479 0.02443688 0.15699995 2435925
0.71833479 0.022848092 0.15699995 2369599
0.71833479 0.0212593 0.15699995 2303806
0.71833479 0.019670509 0.15699995 2304047
0.71815664 0.018178623 0.15799993 2304299
0.71815664 0.016592447 0.15799993 2304297
0.71780026 0.015210535 0.15999997 2172711
0.71780026 0.013629586 0.15999997 1975332
0.71762204 0.012155987 0.16099995 1909539
0.71726573 0.01079759 0.16299993 1645597
0.71726573 0.0092244744 0.16299993 1514011
0.71708751 0.0077665746 0.16399997 1448218
0.71673113 0.0064316913 0.16599995 1448218
0.71655297 0.0049868375 0.16699994 1514011
0.71637475 0.0035472214 0.16799998 1579804
0.71601844 0.0022384748 0.16999996 1579804
0.71601844 0.00068365782 0.16999996 1579804
0.71584022 -0.00074028969 0.17099994 1579804
0.71566206 -0.0021590069 0.17199993 1579804
0.71548384 -0.0035724938 0.17299998 1645597
0.71548384 -0.0051194727 0.17299998 1777183
0.71530569 -0.0065251291 0.17399997 1842976
0.71530569 -0.0080694929 0.17399997 1908767
0.71530569 -0.0096138641 0.17399997 1908767
0.71512753 -0.011009067 0.17499995 1974560
0.71512753 -0.012550816 0.17499995 1974560
0.71512753 -0.014092572 0.17499995 2040353
0.71512753 -0.015634328 0.17499995 2040353
0.71494931 -0.017016463 0.17599994 1974560
0.71494931 -0.018555596 0.17599994 2106146
0.71477115 -0.019929878 0.17699999 2106146
0.71459293 -0.021298952 0.17799997 2237732
0.71459293 -0.022832863 0.17799997 2303525
0.71459293 -0.024366781 0.17799997 2369318
0.71441478 -0.025725394 0.17899996 2369318
0.71441478 -0.027256697 0.17899996 2435111
0.71441478 -0.028788 0.17899996 2303525
0.71423662 -0.030136161 0.17999995 2303525
0.71423662 -0.031664848 0.17999995 2369318
0.71423662 -0.033193544 0.17999995 2435111
0.71423662 -0.034722231 0.17999995 2830641
0.71423662 -0.036250919 0.17999995 3158834
0.71441478 -0.037975803 0.17899996 2566697
0.71441478 -0.039507106 0.17899996 2698283
0.71441478 -0.041038409 0.17899996 2369318
0.71459293 -0.042773753 0.17799997 2236962
0.71459293 -0.044307664 0.17799997 2171169
0.71494931 -0.046260126 0.17599994 2105376
0.71494931 -0.047799267 0.17599994 2039583
0.71512753 -0.04955291 0.17499995 2039583
0.71530569 -0.051311769 0.17399997 1973790
0.71548384 -0.053075857 0.17299998 1973790
0.71566206 -0.054845162 0.17199993 1907997
0.71584022 -0.056619711 0.17099994 1776664
0.71601844 -0.058399476 0.16999996 1776664
0.71637475 -0.060414635 0.16799998 1710871
0.71655297 -0.062207483 0.16699994 1776664
0.71673113 -0.064005546 0.16599995 1776664
0.71673113 -0.065570809 0.16599995 1710871
0.71708751 -0.067617334 0.16399997 1579285
0.71708751 -0.069187827 0.16399997 1973790
0.71726573 -0.071004204 0.16299993 2039583
0.71726573 -0.072577305 0.16299993 2106146
0.71726573 -0.074150436 0.16299993 2237732
0.71726573 -0.075723536 0.16299993 2303525
0.71726573 -0.077296637 0.16299993 2303525
0.71726573 -0.078869753 0.16299993 2369318
0.71744388 -0.080704384 0.16199994 2369318
0.71762204 -0.08254426 0.16099995 2369318
0.71762204 -0.084122591 0.16099995 2369318
0.71762204 -0.085700937 0.16099995 2566697
0.71780026 -0.087551259 0.15999997 2764076
0.71780026 -0.089132212 0.15999997 3027250
0.71780026 -0.090713151 0.15999997 3355445
0.71692157 0.024350431 0.15599996 2304853
0.71674597 0.022848092 0.15699995 2369599
0.71674597 0.0212593 0.15699995 2303806
0.71674597 0.019670509 0.15699995 2369842
0.71657044 0.018178623 0.15799993 2304299
0.71657044 0.016592447 0.15799993 2370090
0.71639484 0.015108403 0.15899998 2172711
0.71621931 0.013629586 0.15999997 1975332
0.71604371 0.012155987 0.16099995 1909539
0.71586818 0.010687619 0.16199994 1514781
0.71569258 0.0092244744 0.16299993 1383195
0.71551704 0.0077665746 0.16399997 1383195
0.71516585 0.0064316913 0.16599995 1383195
0.71499032 0.0049868375 0.16699994 1448988
0.71481472 0.0035472214 0.16799998 1448988
0.71446359 0.0022384748 0.16999996 1448988
0.71428806 0.00081191957 0.17099994 1448988
0.71411246 -0.00060941279 0.17199993 1448988
0.71411246 -0.0021590069 0.17199993 1448988
0.71393687 -0.0035724938 0.17299998 1645597
0.71376133 -0.0049807578 0.17399997 1777183
0.71376133 -0.0065251291 0.17399997 1842976
0.71376133 -0.0080694929 0.17399997 1908769
0.71358573 -0.0094673112 0.17499995 1908769
0.71358573 -0.011009067 0.17499995 1974562
0.71358573 -0.012550816 0.17499995 1974560
0.71358573 -0.014092572 0.17499995 2040353
0.7134102 -0.015477322 0.17599994 2040353
0.7134102 -0.017016463 0.17599994 1974560
0.7134102 -0.018555596 0.17599994 2040353
0.7132346 -0.019929878 0.17699999 2106146
0.71305907 -0.021298952 0.17799997 2237732
0.71305907 -0.022832863 0.17799997 2303525
0.71288347 -0.024194092 0.17899996 2369318
0.71288347 -0.025725394 0.17899996 2369318
0.71270794 -0.027078785 0.17999995 2369318
0.71270794 -0.028607473 0.17999995 2303525
0.71270794 -0.030136161 0.17999995 2303525
0.71270794 -0.031664848 0.17999995 2369318
0.71270794 -0.033193544 0.17999995 2961455
0.71270794 -0.034722231 0.17999995 3291190
0.71270794 -0.036250919 0.17999995 2699053
0.71270794 -0.037779607 0.17999995 2566697
0.71270794 -0.039308295 0.17999995 2698283
0.71288347 -0.041038409 0.17899996 2500134
0.71288347 -0.042569712 0.17899996 2368548
0.71305907 -0.044307664 0.17799997 2171169
0.7132346 -0.046050847 0.17699999 2171169
0.7134102 -0.047799267 0.17599994 2039583
0.71358573 -0.04955291 0.17499995 2039583
0.71376133 -0.051311769 0.17399997 1973790
0.71393687 -0.053075857 0.17299998 1907997
0.71411246 -0.054845162 0.17199993 1907997
0.71428806 -0.056619711 0.17099994 1776664
0.71446359 -0.058399476 0.16999996 1776664
0.71481472 -0.060414635 0.16799998 1776664
0.71499032 -0.062207483 0.16699994 1710871
0.71499032 -0.063770138 0.16699994 1776664
0.71516585 -0.065570809 0.16599995 1710871
0.71551704 -0.067617334 0.16399997 1645078
0.71551704 -0.069187827 0.16399997 1973790
0.71551704 -0.070758335 0.16399997 2039583
0.71569258 -0.072577305 0.16299993 2106146
0.71569258 -0.074150436 0.16299993 2303525
0.71569258 -0.075723536 0.16299993 2303525
0.71569258 -0.077296637 0.16299993 2303525
0.71569258 -0.078869753 0.16299993 2369318
0.71586818 -0.080704384 0.16199994 2369318
0.71586818 -0.082280122 0.16199994 2435111
0.71604371 -0.084122591 0.16099995 2369318
0.71604371 -0.085700937 0.16099995 2566697
0.71621931 -0.087551259 0.15999997 2764076
0.71621931 -0.089132212 0.15999997 3158836
0.71621931 -0.090713151 0.15999997 3289652
0.7155031 0.025857996 0.15499997 2828414
0.71533018 0.024350431 0.15599996 2500953
0.71533018 0.022759028 0.15599996 2501187
0.71515721 0.0212593 0.15699995 2501187
0.71515721 0.019670509 0.15699995 2304308
0.71498424 0.018178623 0.15799993 2304558
0.71498424 0.016592447 0.15799993 2370092
0.71481127 0.015108403 0.15899998 2172711
0.71463835 0.013629586 0.15999997 1975332
0.71446538 0.012155987 0.16099995 1909539
0.71429241 0.010687619 0.16199994 1646367
0.71411949 0.0092244744 0.16299993 1448988
0.71394652 0.0077665746 0.16399997 1448990
0.71360064 0.0064316913 0.16599995 1383197
0.71342766 0.0049868375 0.16699994 1448990
0.71325469 0.0035472214 0.16799998 1514783
0.7129088 0.0022384748 0.16999996 1777185
0.71273583 0.00081191957 0.17099994 1579804
0.71256286 -0.00060941279 0.17199993 1579804
0.71238989 -0.0020255148 0.17299998 1579804
0.71238989 -0.0035724938 0.17299998 1777183
0.71221697 -0.0049807578 0.17399997 1645597
0.71221697 -0.0065251291 0.17399997 1777183
0.712044 -0.0079255551 0.17499995 1842976
0.712044 -0.0094673112 0.17499995 1908769
0.712044 -0.011009067 0.17499995 1908769
0.712044 -0.012550816 0.17499995 1974562
0.71187103 -0.013938181 0.17599994 2040355
0.71187103 -0.015477322 0.17599994 2040355
0.71187103 -0.017016463 0.17599994 1974562
0.71169806 -0.018393353 0.17699999 2106146
0.71152514 -0.019765034 0.17799997 2106146
0.71152514 -0.021298952 0.17799997 2106146
0.71152514 -0.022832863 0.17799997 2303525
0.71135217 -0.024194092 0.17899996 2369318
0.71135217 -0.025725394 0.17899996 2369318
0.7111792 -0.027078785 0.17999995 2369318
0.7111792 -0.028607473 0.17999995 2303525
0.7111792 -0.030136161 0.17999995 2369318
0.7111792 -0.031664848 0.17999995 2369318
0.7111792 -0.033193544 0.17999995 3158834
0.7111792 -0.034722231 0.17999995 3225397
0.7111792 -0.036250919 0.17999995 2698283
0.7111792 -0.037779607 0.17999995 2566697
0.7111792 -0.039308295 0.17999995 2698283
0.7111792 -0.040836982 0.17999995 2369318
0.71135217 -0.042569712 0.17899996 2368548
0.71152514 -0.044307664 0.17799997 2236962
0.71152514 -0.045841582 0.17799997 2171169
0.71169806 -0.047587372 0.17699999 2105376
0.71187103 -0.049338408 0.17599994 2105376
0.712044 -0.051094659 0.17499995 1973790
0.71221697 -0.052856125 0.17399997 1907997
0.71256286 -0.054845162 0.17199993 1907997
0.71273583 -0.056619711 0.17099994 1776664
0.7129088 -0.058399476 0.16999996 1776664
0.71308172 -0.060184471 0.16899997 1776664
0.71342766 -0.062207483 0.16699994 1776664
0.71342766 -0.063770138 0.16699994 1776664
0.71360064 -0.065570809 0.16599995 1776664
0.71377355 -0.06737671 0.16499996 1710871
0.71394652 -0.069187827 0.16399997 1907997
0.71394652 -0.070758335 0.16399997 2039583
0.71394652 -0.072328828 0.16399997 2106146
0.71411949 -0.074150436 0.16299993 2303525
0.71411949 -0.075723536 0.16299993 2303525
0.71411949 -0.077296637 0.16299993 2303525
0.71411949 -0.078869753 0.16299993 2369318
0.71411949 -0.080442853 0.16299993 2369318
0.71429241 -0.082280122 0.16199994 2369318
0.71446538 -0.084122591 0.16099995 2369318
0.71446538 -0.085700937 0.16099995 2698283
0.71463835 -0.087551259 0.15999997 2764076
0.71463835 -0.089132212 0.15999997 3224629
0.71463835 -0.090713151 0.15999997 3158068
0.71390909 0.025857996 0.15499997 2893953
0.7137388 0.024350431 0.15599996 2566494
0.7137388 0.022759028 0.15599996 2500933
0.71356845 0.0212593 0.15699995 2500933
0.71356845 0.019670509 0.15699995 2435381
0.7133981 0.018178623 0.15799993 2435631
0.7133981 0.016592447 0.15799993 2435631
0.71322775 0.015108403 0.15899998 2238506
0.7130574 0.013629586 0.15999997 2106920
0.71288705 0.012155987 0.16099995 1975332
0.71288705 0.010577649 0.16099995 1646367
0.71254635 0.0092244744 0.16299993 1514781
0.712376 0.0077665746 0.16399997 1383197
0.71203536 0.0064316913 0.16599995 1383197
0.71186501 0.0049868375 0.16699994 1448990
0.71169466 0.0035472214 0.16799998 1514783
0.71135396 0.0022384748 0.16999996 1645599
0.71118361 0.00081191957 0.17099994 1645597
0.71101332 -0.00060941279 0.17199993 1579804
0.71084297 -0.0020255148 0.17299998 1579804
0.71067262 -0.003436394 0.17399997 1777183
0.71067262 -0.0049807578 0.17399997 1777183
0.71050227 -0.006383799 0.17499995 1777183
0.71050227 -0.0079255551 0.17499995 1842976
0.71050227 -0.0094673112 0.17499995 1908769
0.71033192 -0.010859899 0.17599994 1908769
0.71033192 -0.01239904 0.17599994 1974562
0.71033192 -0.013938181 0.17599994 2040355
0.71033192 -0.015477322 0.17599994 2040355
0.71016157 -0.016856834 0.17699999 1974562
0.70999122 -0.018231124 0.17799997 2106146
0.70999122 -0.019765034 0.17799997 2040353
0.70999122 -0.021298952 0.17799997 2106146
0.70982087 -0.022662796 0.17899996 2303525
0.70982087 -0.024194092 0.17899996 2369318
0.70965052 -0.025550097 0.17999995 2435111
0.70965052 -0.027078785 0.17999995 2369318
0.70965052 -0.028607473 0.17999995 2369318
0.70948023 -0.029953025 0.18099993 2369318
0.70948023 -0.031479105 0.18099993 2369318
0.70948023 -0.033005178 0.18099993 3158834
0.70948023 -0.034531251 0.18099993 2566697
0.70965052 -0.036250919 0.17999995 2631720
0.70965052 -0.037779607 0.17999995 2697513
0.70965052 -0.039308295 0.17999995 2697513
0.70965052 -0.040836982 0.17999995 2434341
0.70982087 -0.042569712 0.17899996 2368548
0.70999122 -0.044307664 0.17799997 2500904
0.70999122 -0.045841582 0.17799997 2303525
0.71016157 -0.047587372 0.17699999 1974560
0.71033192 -0.049338408 0.17599994 2105378
0.71050227 -0.051094659 0.17499995 2039583
0.71067262 -0.052856125 0.17399997 1907997
0.71101332 -0.054845162 0.17199993 1907997
0.71118361 -0.056619711 0.17099994 1776411
0.71135396 -0.058399476 0.16999996 1710618
0.71152431 -0.060184471 0.16899997 1908250
0.71169466 -0.061974682 0.16799998 1710871
0.71186501 -0.063770138 0.16699994 1710871
0.71203536 -0.065570809 0.16599995 1776664
0.71220571 -0.06737671 0.16499996 1710871
0.712376 -0.069187827 0.16399997 1908250
0.712376 -0.070758335 0.16399997 2039836
0.712376 -0.072328828 0.16399997 2106146
0.71254635 -0.074150436 0.16299993 2303525
0.71254635 -0.075723536 0.16299993 2303525
0.71254635 -0.077296637 0.16299993 2303525
0.71254635 -0.078869753 0.16299993 2303525
0.71254635 -0.080442853 0.16299993 2369318
0.7127167 -0.082280122 0.16199994 2369318
0.71288705 -0.084122591 0.16099995 2369318
0.71288705 -0.085700937 0.16099995 2566697
0.71288705 -0.087279268 0.16099995 2698283
0.71288705 -0.088857614 0.16099995 3355445
0.71288705 -0.090435944 0.16099995 9474966
0.71214736 0.032307442 0.15599996 10526418
0.71231508 0.025857996 0.15499997 2828421
0.71231508 0.024263978 0.15499997 2567007
0.71214736 0.022759028 0.15599996 2500933
0.71197963 0.0212593 0.15699995 2500933
0.71197963 0.019670509 0.15699995 2435381
0.71197963 0.018081721 0.15699995 2435633
0.7118119 0.016592447 0.15799993 2435631
0.71164417 0.015108403 0.15899998 2238506
0.71147645 0.013629586 0.15999997 1975334
0.71147645 0.012048632 0.15999997 1975334
0.71130872 0.010577649 0.16099995 1646367
0.71097326 0.0092244744 0.16299993 1646369
0.71080554 0.0077665746 0.16399997 1383197
0.71047008 0.0064316913 0.16599995 1383197
0.71030235 0.0049868375 0.16699994 1448990
0.71013463 0.0035472214 0.16799998 1514783
0.70979917 0.0022384748 0.16999996 1514783
0.70963144 0.00081191957 0.17099994 1579806
0.70946372 -0.00060941279 0.17199993 1579804
0.70912826 -0.0018920302 0.17399997 1579804
0.70912826 -0.003436394 0.17399997 1645597
0.70896053 -0.0048420504 0.17499995 1777181
0.70896053 -0.006383799 0.17499995 1777181
0.70896053 -0.0079255551 0.17499995 1842974
0.70879281 -0.0093207583 0.17599994 1908767
0.70879281 -0.010859899 0.17599994 1974560
0.70879281 -0.01239904 0.17599994 1974560
0.70879281 -0.013938181 0.17599994 1974560
0.70862502 -0.015320309 0.17699999 2040353
0.70845729 -0.016697213 0.17799997 2040353
0.70845729 -0.018231124 0.17799997 2106146
0.70845729 -0.019765034 0.17799997 2040353
0.70828956 -0.021131493 0.17899996 2237732
0.70828956 -0.022662796 0.17899996 2303525
0.70812184 -0.024021409 0.17999995 2369318
0.70812184 -0.025550097 0.17999995 2369318
0.70812184 -0.027078785 0.17999995 2435111
0.70812184 -0.028607473 0.17999995 2369318
0.70795411 -0.029953025 0.18099993 2369318
0.70795411 -0.031479105 0.18099993 2369318
0.70795411 -0.033005178 0.18099993 2895662
0.70795411 -0.034531251 0.18099993 2631720
0.70795411 -0.036057331 0.18099993 2631720
0.70812184 -0.037779607 0.17999995 2697513
0.70812184 -0.039308295 0.17999995 2697513
0.70812184 -0.040836982 0.17999995 2500134
0.70828956 -0.042569712 0.17899996 2368548
0.70828956 -0.044101015 0.17899996 2435111
0.70845729 -0.045841582 0.17799997 2303525
0.70862502 -0.047587372 0.17699999 1974560
0.70879281 -0.049338408 0.17599994 2105376
0.70896053 -0.051094659 0.17499995 2039583
0.70912826 -0.052856125 0.17399997 1907997
0.70946372 -0.054845162 0.17199993 1907997
0.70963144 -0.056619711 0.17099994 1645595
0.70979917 -0.058399476 0.16999996 1645595
0.7099669 -0.060184471 0.16899997 1776664
0.71013463 -0.061974682 0.16799998 1710871
0.71030235 -0.063770138 0.16699994 1710871
0.71047008 -0.065570809 0.16599995 1776664
0.71047008 -0.067136087 0.16599995 1710871
0.71063781 -0.068944596 0.16499996 1974043
0.71080554 -0.070758335 0.16399997 2105629
0.71080554 -0.072328828 0.16399997 2368548
0.71080554 -0.073899336 0.16399997 2434341
0.71080554 -0.075469829 0.16399997 2369318
0.71080554 -0.077040322 0.16399997 2303525
0.71097326 -0.078869753 0.16299993 2303525
0.71097326 -0.080442853 0.16299993 2369318
0.71114099 -0.082280122 0.16199994 2369318
0.71130872 -0.084122591 0.16099995 2369318
0.71130872 -0.085700937 0.16099995 2566697
0.71130872 -0.087279268 0.16099995 2698283
0.71147645 -0.089132212 0.15999997 3158836
0.71130872 -0.090435944 0.16099995 9539989
0.71055597 0.032307442 0.15599996 10065865
0.71072108 0.025857996 0.15499997 2763144
0.71072108 0.024263978 0.15499997 2435683
0.71055597 0.022759028 0.15599996 2500933
0.71039087 0.0212593 0.15699995 2370101
0.71039087 0.019670509 0.15699995 2501687
0.7102257 0.018178623 0.15799993 2567219
0.7102257 0.016592447 0.15799993 2369838
0.7100606 0.015108403 0.15899998 2238506
0.70989549 0.013629586 0.15999997 1975334
0.70989549 0.012048632 0.15999997 1909541
0.70973039 0.010577649 0.16099995 1712162
0.70940018 0.0092244744 0.16299993 1646369
0.70923501 0.0077665746 0.16399997 1448990
0.70906991 0.0063138828 0.16499996 1383197
0.7087397 0.0049868375 0.16699994 1448990
0.70857453 0.0035472214 0.16799998 1514783
0.70824432 0.0022384748 0.16999996 1514783
0.70807922 0.00081191957 0.17099994 1579806
0.70791411 -0.00060941279 0.17199993 1579804
0.70758384 -0.0018920302 0.17399997 1579804
0.70758384 -0.003436394 0.17399997 1645597
0.70741874 -0.0048420504 0.17499995 1777181
0.70741874 -0.006383799 0.17499995 1777181
0.70725363 -0.0077816173 0.17599994 1842974
0.70725363 -0.0093207583 0.17599994 1908767
0.70708853 -0.010710724 0.17699999 1974560
0.70708853 -0.012247249 0.17699999 1974560
0.70692337 -0.013629384 0.17799997 2040353
0.70692337 -0.015163302 0.17799997 2040353
0.70692337 -0.016697213 0.17799997 2040353
0.70675826 -0.018068887 0.17899996 2236962
0.70675826 -0.01960019 0.17899996 2106146
0.70675826 -0.021131493 0.17899996 2237732
0.70659316 -0.022492722 0.17999995 2303525
0.70659316 -0.024021409 0.17999995 2369318
0.70659316 -0.025550097 0.17999995 2369318
0.70659316 -0.027078785 0.17999995 2435111
0.70642805 -0.028426953 0.18099993 2369318
0.70642805 -0.029953025 0.18099993 2369318
0.70642805 -0.031479105 0.18099993 2435111
0.70642805 -0.033005178 0.18099993 2829869
0.70659316 -0.034722231 0.17999995 2435111
0.70659316 -0.036250919 0.17999995 2631720
0.70659316 -0.037779607 0.17999995 2697513
0.70659316 -0.039308295 0.17999995 2697513
0.70659316 -0.040836982 0.17999995 2500134
0.70675826 -0.042569712 0.17899996 2368548
0.70675826 -0.044101015 0.17899996 2237732
0.70692337 -0.045841582 0.17799997 2106146
0.70708853 -0.047587372 0.17699999 1974560
0.70725363 -0.049338408 0.17599994 2105376
0.70741874 -0.051094659 0.17499995 2039583
0.70758384 -0.052856125 0.17399997 1973790
0.70774901 -0.054622822 0.17299998 1907997
0.70791411 -0.056394763 0.17199993 1645595
0.70807922 -0.05817192 0.17099994 1645595
0.70824432 -0.059954293 0.16999996 1776411
0.70857453 -0.061974682 0.16799998 1710871
0.7087397 -0.063770138 0.16699994 1710871
0.7087397 -0.065332808 0.16699994 1776664
0.7089048 -0.067136087 0.16599995 1710871
0.7089048 -0.068701364 0.16599995 1973790
0.70906991 -0.070512481 0.16499996 2236962
0.70923501 -0.072328828 0.16399997 2368548
0.70923501 -0.073899336 0.16399997 2434341
0.70923501 -0.075469829 0.16399997 2434341
0.70923501 -0.077040322 0.16399997 2434341
0.70940018 -0.078869753 0.16299993 2434341
0.70940018 -0.080442853 0.16299993 2303525
0.70940018 -0.082015984 0.16299993 2369318
0.70956528 -0.083855845 0.16199994 2369318
0.70973039 -0.085700937 0.16099995 2566697
0.70973039 -0.087279268 0.16099995 2698283
0.70973039 -0.088857614 0.16099995 3027250
0.70973039 -0.090435944 0.16099995 9539989
0.70896459 0.032307442 0.15599996 10394060
0.70912707 0.025857996 0.15499997 2828939
0.70896459 0.024350431 0.15599996 2435685
0.70896459 0.022759028 0.15599996 2370117
0.70880204 0.0212593 0.15699995 2501687
0.70880204 0.019670509 0.15699995 2501687
0.70863956 0.018178623 0.15799993 2567219
0.70863956 0.016592447 0.15799993 2369838
0.70863956 0.015006267 0.15799993 2238506
0.70831454 0.013629586 0.15999997 2106920
0.70831454 0.012048632 0.15999997 1975334
0.70815206 0.010577649 0.16099995 1712162
0.70798951 0.0091118962 0.16199994 1646369
0.70782703 0.0076513737 0.16299993 1448990
0.70750201 0.0063138828 0.16499996 1383197
0.70717704 0.0049868375 0.16699994 1514783
0.7070145 0.0035472214 0.16799998 1514783
0.70668948 0.0022384748 0.16999996 1448990
0.70652699 0.00081191957 0.17099994 1514013
0.70636451 -0.00060941279 0.17199993 1579804
0.70603949 -0.0018920302 0.17399997 1579804
0.70603949 -0.003436394 0.17399997 1645597
0.70587701 -0.0048420504 0.17499995 1777183
0.70587701 -0.006383799 0.17499995 1777181
0.70571446 -0.0077816173 0.17599994 1908767
0.70571446 -0.0093207583 0.17599994 1908767
0.70555198 -0.010710724 0.17699999 1974560
0.7053895 -0.012095474 0.17799997 2040353
0.7053895 -0.013629384 0.17799997 2106146
0.7053895 -0.015163302 0.17799997 2368548
0.7053895 -0.016697213 0.17799997 2368548
0.70522696 -0.018068887 0.17899996 2302498
0.70522696 -0.01960019 0.17899996 2236962
0.70522696 -0.021131493 0.17899996 2237732
0.70506448 -0.022492722 0.17999995 2303525
0.70506448 -0.024021409 0.17999995 2369318
0.70506448 -0.025550097 0.17999995 2435111
0.70506448 -0.027078785 0.17999995 2435111
0.70506448 -0.028607473 0.17999995 2369318
0.70506448 -0.030136161 0.17999995 2435111
0.70506448 -0.031664848 0.17999995 2500904
0.70506448 -0.033193544 0.17999995 2566697
0.70506448 -0.034722231 0.17999995 2435111
0.70506448 -0.036250919 0.17999995 2435111
0.70506448 -0.037779607 0.17999995 2697513
0.70522696 -0.039507106 0.17899996 2697513
0.70522696 -0.041038409 0.17899996 2565927
0.70522696 -0.042569712 0.17899996 2368548
0.7053895 -0.044307664 0.17799997 2106146
0.7053895 -0.045841582 0.17799997 2040353
0.70555198 -0.047587372 0.17699999 1974560
0.70571446 -0.049338408 0.17599994 1908767
0.70587701 -0.051094659 0.17499995 1908767
0.70603949 -0.052856125 0.17399997 1842974
0.70620203 -0.054622822 0.17299998 1842974
0.70636451 -0.056394763 0.17199993 1645595
0.70652699 -0.05817192 0.17099994 1579802
0.70668948 -0.059954293 0.16999996 1645595
0.7070145 -0.061974682 0.16799998 1710871
0.7070145 -0.063534729 0.16799998 1710871
0.70717704 -0.065332808 0.16699994 1776664
0.70733953 -0.067136087 0.16599995 1710871
0.70733953 -0.068701364 0.16599995 1973790
0.70750201 -0.070512481 0.16499996 2236962
0.70750201 -0.072080366 0.16499996 2368548
0.70766455 -0.073899336 0.16399997 2434341
0.70766455 -0.075469829 0.16399997 2434341
0.70766455 -0.077040322 0.16399997 2434341
0.70766455 -0.07861083 0.16399997 2434341
0.70782703 -0.080442853 0.16299993 2303525
0.70782703 -0.082015984 0.16299993 2435113
0.70798951 -0.083855845 0.16199994 2369320
0.70815206 -0.085700937 0.16099995 2566699
0.70815206 -0.087279268 0.16099995 2698285
0.70815206 -0.088857614 0.16099995 3027250
0.70815206 -0.090435944 0.16099995 9671575
0.70737314 0.032307442 0.15599996 10065613
0.70753306 0.025857996 0.15499997 2632857
0.70753306 0.024263978 0.15499997 2304871
0.70737314 0.022759028 0.15599996 2435910
0.70721328 0.0212593 0.15699995 2501689
0.70721328 0.019670509 0.15699995 2501689
0.70705336 0.018178623 0.15799993 2501941
0.70705336 0.016592447 0.15799993 2633523
0.70705336 0.015006267 0.15799993 2304299
0.7068935 0.013524838 0.15899998 2238506
0.70673358 0.012048632 0.15999997 2106920
0.70657372 0.010577649 0.16099995 1777955
0.70641381 0.0091118962 0.16199994 1777955
0.70625395 0.0076513737 0.16299993 1646115
0.70609403 0.0061960742 0.16399997 1448990
0.70577425 0.0048664212 0.16599995 1448990
0.70561439 0.0034241825 0.16699994 1448990
0.70545447 0.0019871816 0.16799998 1448990
0.70513469 0.00068365782 0.16999996 1448990
0.70497477 -0.00074028969 0.17099994 1579804
0.70481491 -0.0021590069 0.17199993 1579804
0.70465499 -0.0035724938 0.17299998 1777183
0.70449513 -0.0049807578 0.17399997 1777183
0.70449513 -0.0065251291 0.17399997 1842976
0.70433521 -0.0079255551 0.17499995 1908767
0.70433521 -0.0094673112 0.17499995 1908767
0.70417535 -0.010859899 0.17599994 1974560
0.70417535 -0.01239904 0.17599994 2040353
0.70385557 -0.013629384 0.17799997 2106146
0.70385557 -0.015163302 0.17799997 2303525
0.70385557 -0.016697213 0.17799997 2500904
0.70385557 -0.018231124 0.17799997 2368548
0.70369565 -0.01960019 0.17899996 2236962
0.70369565 -0.021131493 0.17899996 2237732
0.70369565 -0.022662796 0.17899996 2303525
0.70369565 -0.024194092 0.17899996 2369318
0.70369565 -0.025725394 0.17899996 2435111
0.70369565 -0.027256697 0.17899996 2435111
0.7035358 -0.028607473 0.17999995 2369318
0.7035358 -0.030136161 0.17999995 2435111
0.7035358 -0.031664848 0.17999995 2500904
0.70369565 -0.033381902 0.17899996 2566697
0.70369565 -0.034913205 0.17899996 2435111
0.70369565 -0.036444508 0.17899996 2435111
0.70369565 -0.037975803 0.17899996 2697513
0.70385557 -0.039705925 0.17799997 2697513
0.70385557 -0.041239835 0.17799997 2565927
0.70385557 -0.042773753 0.17799997 2368548
0.70385557 -0.044307664 0.17799997 2040353
0.70417535 -0.046260126 0.17599994 1974560
0.70417535 -0.047799267 0.17599994 1908767
0.70433521 -0.04955291 0.17499995 1908767
0.70433521 -0.051094659 0.17499995 1842974
0.70449513 -0.052856125 0.17399997 1842974
0.70465499 -0.054622822 0.17299998 1777181
