# .PCD v0.7 - Point Cloud Data file format
VERSION 0.7
FIELDS x y z rgb
SIZE 4 4 4 4
TYPE F F F U
COUNT 1 1 1 1
WIDTH 1120
HEIGHT 1
VIEWPOINT 0 0 0 1 0 0 0
POINTS 1120
DATA ascii
0.77092105 -0.035133116 0.20099998 2830122
0.77092105 -0.03660693 0.20099998 2830122
0.77092105 -0.038080744 0.20099998 2764329
0.77092105 -0.039554551 0.20099998 2764329
0.77092105 -0.041028365 0.20099998 2830122
0.77092105 -0.04250218 0.20099998 2830122
0.77092105 -0.043975994 0.20099998 2764329
0.77092105 -0.045449801 0.20099998 2764329
0.77092105 -0.046923615 0.20099998 2830122
0.77063572 -0.048175089 0.20199996 2830122
0.77063572 -0.049646281 0.20199996 2830122
0.77063572 -0.051117487 0.20199996 2895915
0.77063572 -0.052588679 0.20199996 2830122
0.77035046 -0.0538271 0.20299995 2830122
0.77035046 -0.055295683 0.20299995 2830122
0.77035046 -0.056764267 0.20299995 2830122
0.77006513 -0.057992227 0.20399994 2830122
0.77006513 -0.059458204 0.20399994 2830122
0.77006513 -0.06092418 0.20399994 2699306
0.7697798 -0.062141664 0.20499998 2765099
0.7697798 -0.063605033 0.20499998 2699306
0.7697798 -0.065068386 0.20499998 2765099
0.7697798 -0.06653174 0.20499998 2765099
0.7697798 -0.067995109 0.20499998 2961708
0.77006513 -0.069720007 0.20399994 2895915
0.77006513 -0.071185984 0.20399994 2895915
0.77035046 -0.072918706 0.20299995 2895915
0.77063572 -0.074656673 0.20199996 2961708
0.77120638 -0.076671831 0.19999999 2961708
0.77177703 -0.078697465 0.19799995 3027501
0.77234769 -0.08073353 0.19599998 3159087
0.77291834 -0.082780071 0.19399995 3289903
0.77368784 0.029970016 0.18599993 2302749
0.77312243 0.028624695 0.18799996 3223853
0.77255702 0.027289812 0.18999994 3421489
0.77199161 0.025965389 0.19199997 3159085
0.7711435 0.024743091 0.19499993 2302751
0.77086079 0.023347899 0.19599998 592133
0.77029538 0.022054829 0.19799995 2697256
0.77001268 0.020672694 0.19899994 2369318
0.77001268 0.019193653 0.19899994 2369318
0.76972997 0.017819364 0.19999999 2566180
0.76944721 0.016450297 0.20099998 2631973
0.76944721 0.014976483 0.20099998 2566180
0.76944721 0.013502672 0.20099998 2566180
0.76916456 0.012144059 0.20199996 2435364
0.76916456 0.01067286 0.20199996 2435364
0.76916456 0.0092016608 0.20199996 2435364
0.76916456 0.0077304617 0.20199996 2435364
0.76916456 0.0062592626 0.20199996 2501157
0.76916456 0.0047880635 0.20199996 2501157
0.76916456 0.0033168644 0.20199996 2369571
0.76916456 0.0018456653 0.20199996 2303778
0.76916456 0.00037446618 0.20199996 2501157
0.76916456 -0.0010967329 0.20199996 2501157
0.76916456 -0.002567932 0.20199996 2369571
0.76916456 -0.0040391311 0.20199996 2435364
0.76916456 -0.0055103302 0.20199996 2435364
0.76916456 -0.0069815293 0.20199996 2435364
0.76916456 -0.0084527284 0.20199996 2435364
0.76916456 -0.0099239275 0.20199996 2501157
0.76916456 -0.011395127 0.20199996 2501157
0.76916456 -0.012866326 0.20199996 2566950
0.76916456 -0.014337517 0.20199996 2566950
0.76916456 -0.015808716 0.20199996 2566950
0.76944721 -0.017447375 0.20099998 2631973
0.76944721 -0.018921182 0.20099998 2501157
0.76944721 -0.020394996 0.20099998 2566950
0.76944721 -0.02186881 0.20099998 2566950
0.76944721 -0.023342624 0.20099998 2501157
0.76944721 -0.024816431 0.20099998 2566950
0.76944721 -0.026290245 0.20099998 2698536
0.76944721 -0.02776406 0.20099998 2698536
0.76944721 -0.029237866 0.20099998 2764329
0.76944721 -0.030711681 0.20099998 2698536
0.76944721 -0.032185495 0.20099998 2764329
0.76944721 -0.033659309 0.20099998 2764329
0.76944721 -0.035133116 0.20099998 2764329
0.76944721 -0.03660693 0.20099998 2764329
0.76972997 -0.038284786 0.19999999 2764329
0.76972997 -0.039761208 0.19999999 2830122
0.76972997 -0.041237637 0.19999999 2764329
0.76944721 -0.04250218 0.20099998 2764329
0.76944721 -0.043975994 0.20099998 2764329
0.76944721 -0.045449801 0.20099998 2764329
0.76944721 -0.046923615 0.20099998 2698536
0.76944721 -0.048397414 0.20099998 2830122
0.76944721 -0.049871229 0.20099998 2830122
0.76916456 -0.051117487 0.20199996 2830122
0.76916456 -0.052588679 0.20199996 2764329
0.76916456 -0.054059885 0.20199996 2764329
0.7688818 -0.055295683 0.20299995 2764329
0.7688818 -0.056764267 0.20299995 2830122
0.7688818 -0.058232851 0.20299995 2764329
0.76859915 -0.059458204 0.20399994 2764329
0.76859915 -0.06092418 0.20399994 2830122
0.76859915 -0.062390156 0.20399994 2699306
0.76859915 -0.063856132 0.20399994 2699306
0.76831639 -0.065068386 0.20499998 2765099
0.76831639 -0.06653174 0.20499998 2699306
0.76859915 -0.068254046 0.20399994 2895915
0.76859915 -0.069720007 0.20399994 2895915
0.76859915 -0.071185984 0.20399994 2895915
0.7688818 -0.072918706 0.20299995 2895915
0.76944721 -0.074926041 0.20099998 2895915
0.76972997 -0.076671831 0.19999999 2895915
0.77029538 -0.078697465 0.19799995 3027501
0.77086079 -0.08073353 0.19599998 3159087
0.77170891 -0.083059885 0.19299996 3289903
0.77189475 0.030051246 0.18699998 2500128
0.77133459 0.028708532 0.18899995 3354667
0.77077436 0.027376268 0.19099998 3421230
0.77049428 0.025965389 0.19199997 3159085
0.76965404 0.024743091 0.19499993 2434337
0.76937389 0.023347899 0.19599998 789512
0.76881373 0.022054829 0.19799995 2565927
0.76853365 0.020672694 0.19899994 2303525
0.76853365 0.019193653 0.19899994 2303525
0.76825351 0.017819364 0.19999999 2369571
0.76825351 0.016342938 0.19999999 2435364
0.76825351 0.014866516 0.19999999 2369571
0.76797342 0.013502672 0.20099998 2369571
0.76797342 0.012028866 0.20099998 2369571
0.76797342 0.010555051 0.20099998 2303778
0.76797342 0.009081237 0.20099998 2369571
0.76769334 0.0077304617 0.20199996 2435364
0.76769334 0.0062592626 0.20199996 2435364
0.76769334 0.0047880635 0.20199996 2435364
0.76769334 0.0033168644 0.20199996 2369571
0.76769334 0.0018456653 0.20199996 2369571
0.76769334 0.00037446618 0.20199996 2435364
0.76769334 -0.0010967329 0.20199996 2435364
0.76769334 -0.002567932 0.20199996 2369571
0.76769334 -0.0040391311 0.20199996 2435364
0.76769334 -0.0055103302 0.20199996 2435364
0.76769334 -0.0069815293 0.20199996 2369571
0.76769334 -0.0084527284 0.20199996 2435364
0.76769334 -0.0099239275 0.20199996 2435364
0.76797342 -0.011552133 0.20099998 2435364
0.76797342 -0.013025947 0.20099998 2501157
0.76797342 -0.014499746 0.20099998 2501157
0.76797342 -0.015973561 0.20099998 2697766
0.76797342 -0.017447375 0.20099998 2631973
0.76797342 -0.018921182 0.20099998 2501157
0.76797342 -0.020394996 0.20099998 2566950
0.76797342 -0.02186881 0.20099998 2566950
0.76797342 -0.023342624 0.20099998 2501157
0.76797342 -0.024816431 0.20099998 2566950
0.76797342 -0.026290245 0.20099998 2698536
0.76797342 -0.02776406 0.20099998 2698536
0.76797342 -0.029237866 0.20099998 2698536
0.76797342 -0.030711681 0.20099998 2566950
0.76797342 -0.032185495 0.20099998 2698536
0.76825351 -0.033855505 0.19999999 2764329
0.76825351 -0.035331935 0.19999999 2698536
0.76825351 -0.036808357 0.19999999 2764329
0.76825351 -0.038284786 0.19999999 2764329
0.76825351 -0.039761208 0.19999999 2764329
0.76825351 -0.041237637 0.19999999 2764329
0.76825351 -0.042714059 0.19999999 2764329
0.76825351 -0.044190481 0.19999999 2698536
0.76825351 -0.045666911 0.19999999 2698536
0.76825351 -0.047143333 0.19999999 2566950
0.76797342 -0.048397414 0.20099998 2764329
0.76797342 -0.049871229 0.20099998 2830122
0.76797342 -0.051345043 0.20099998 2764329
0.76797342 -0.052818857 0.20099998 2764329
0.76769334 -0.054059885 0.20199996 2764329
0.76769334 -0.055531077 0.20199996 2764329
0.76741326 -0.056764267 0.20299995 2764329
0.76741326 -0.058232851 0.20299995 2764329
0.76741326 -0.059701435 0.20299995 2698536
0.76741326 -0.061170034 0.20299995 2764329
0.76713318 -0.062390156 0.20399994 2633513
0.76713318 -0.063856132 0.20399994 2633513
0.76713318 -0.065322094 0.20399994 2699306
0.76713318 -0.066788055 0.20399994 2699306
0.76713318 -0.068254046 0.20399994 2830122
0.76741326 -0.069981538 0.20299995 2830122
0.76741326 -0.071450122 0.20299995 2830122
0.76769334 -0.073185466 0.20199996 2895915
0.76797342 -0.074926041 0.20099998 3026731
0.76853365 -0.076943822 0.19899994 2895915
0.76909381 -0.078972064 0.19699997 2961708
0.76965404 -0.081010751 0.19499993 3159087
0.7702142 -0.083059885 0.19299996 3159087
0.77010691 0.030132473 0.18799996 2500128
0.76982939 0.028708532 0.18899995 3288874
0.76927441 0.027376268 0.19099998 3355437
0.76871943 0.026054453 0.19299996 3027499
0.76816452 0.024743091 0.19499993 2500387
0.767887 0.023347899 0.19599998 723719
0.76733208 0.022054829 0.19799995 2565927
0.76733208 0.020573176 0.19799995 2303525
0.76705456 0.019193653 0.19899994 2303525
0.76705456 0.017714616 0.19899994 2369318
0.7667771 0.016342938 0.19999999 2500387
0.7667771 0.014866516 0.19999999 2434594
0.7667771 0.013390087 0.19999999 2500387
0.76649964 0.012028866 0.20099998 2369571
0.76649964 0.010555051 0.20099998 2303778
0.76649964 0.009081237 0.20099998 2369571
0.76649964 0.0076074302 0.20099998 2369571
0.76649964 0.006133616 0.20099998 2435364
0.76649964 0.0046598017 0.20099998 2435364
0.76649964 0.0031859875 0.20099998 2369571
0.76649964 0.0017121807 0.20099998 2303778
0.76622212 0.00037446618 0.20199996 2435364
0.76649964 -0.0012354478 0.20099998 2435364
0.76649964 -0.0027092621 0.20099998 2369571
0.76622212 -0.0040391311 0.20199996 2435364
0.76649964 -0.0056568831 0.20099998 2435364
0.76649964 -0.0071306974 0.20099998 2369571
0.76649964 -0.0086045042 0.20099998 2435364
0.76649964 -0.010078318 0.20099998 2435364
0.76649964 -0.011552133 0.20099998 2435364
0.76649964 -0.013025947 0.20099998 2501157
0.76649964 -0.014499746 0.20099998 2501157
0.76649964 -0.015973561 0.20099998 2631973
0.7667771 -0.017614827 0.19999999 2697766
0.7667771 -0.019091256 0.19999999 2631973
0.7667771 -0.020567678 0.19999999 2697766
0.7667771 -0.022044107 0.19999999 2501157
0.7667771 -0.023520529 0.19999999 2435364
0.7667771 -0.024996959 0.19999999 2501157
0.7667771 -0.026473381 0.19999999 2566950
0.7667771 -0.02794981 0.19999999 2566950
0.7667771 -0.029426232 0.19999999 2698536
0.7667771 -0.030902654 0.19999999 2566950
0.7667771 -0.032379083 0.19999999 2698536
0.7667771 -0.033855505 0.19999999 2566950
0.7667771 -0.035331935 0.19999999 2698536
0.7667771 -0.036808357 0.19999999 2764329
0.7667771 -0.038284786 0.19999999 2764329
0.7667771 -0.039761208 0.19999999 2698536
0.7667771 -0.041237637 0.19999999 2698536
0.7667771 -0.042714059 0.19999999 2764329
0.7667771 -0.044190481 0.19999999 2566697
0.7667771 -0.045666911 0.19999999 2698283
0.7667771 -0.047143333 0.19999999 2698536
0.7667771 -0.048619755 0.19999999 2764329
0.76649964 -0.049871229 0.20099998 2764329
0.76649964 -0.051345043 0.20099998 2698536
0.76649964 -0.052818857 0.20099998 2698536
0.76649964 -0.054292671 0.20099998 2764329
0.76622212 -0.055531077 0.20199996 2698536
0.76622212 -0.057002284 0.20199996 2764329
0.76622212 -0.058473475 0.20199996 2698536
0.76594466 -0.059701435 0.20299995 2698536
0.76594466 -0.061170034 0.20299995 2764329
0.76594466 -0.062638618 0.20299995 2764329
0.76594466 -0.064107202 0.20299995 2764329
0.76594466 -0.065575786 0.20299995 2764329
0.76594466 -0.06704437 0.20299995 2764329
0.76594466 -0.068512954 0.20299995 2830122
0.76594466 -0.069981538 0.20299995 2830122
0.76622212 -0.071714275 0.20199996 2830122
0.76649964 -0.073452212 0.20099998 2895915
0.7667771 -0.075195409 0.19999999 2960938
0.76733208 -0.077215798 0.19799995 3026731
0.767887 -0.079246663 0.19599998 3026731
0.76816452 -0.081010751 0.19499993 3027501
0.76899695 -0.083339714 0.19199997 3159087
0.76859909 0.030132473 0.18799996 2631198
0.76804936 0.02879237 0.18999994 3288874
0.76777446 0.027376268 0.19099998 3355437
0.76722479 0.026054453 0.19299996 3027499
0.76667506 0.024743091 0.19499993 2368801
0.76640016 0.023347899 0.19599998 2565927
0.76612532 0.021957923 0.19699997 2500134
0.76585042 0.020573176 0.19799995 2303525
0.76585042 0.019091524 0.19799995 2303525
0.76557553 0.017714616 0.19899994 2369318
0.76557553 0.016235579 0.19899994 2369571
0.76530069 0.014866516 0.19999999 2303778
0.76530069 0.013390087 0.19999999 2369571
0.76530069 0.011913665 0.19999999 2369571
0.76530069 0.010437243 0.19999999 2303778
0.76502579 0.009081237 0.20099998 2369571
0.76502579 0.0076074302 0.20099998 2303778
0.76502579 0.006133616 0.20099998 2435364
0.76502579 0.0046598017 0.20099998 2435364
0.76502579 0.0031859875 0.20099998 2369571
0.76502579 0.0017121807 0.20099998 2435364
0.76502579 0.00023836643 0.20099998 2435364
0.76502579 -0.0012354478 0.20099998 2435364
0.76502579 -0.0027092621 0.20099998 2369571
0.76502579 -0.0041830689 0.20099998 2435364
0.76502579 -0.0056568831 0.20099998 2435364
0.76502579 -0.0071306974 0.20099998 2369571
0.76502579 -0.0086045042 0.20099998 2435364
0.76502579 -0.010078318 0.20099998 2435364
0.76502579 -0.011552133 0.20099998 2435364
0.76530069 -0.013185561 0.19999999 2435364
0.76530069 -0.014661983 0.19999999 2501157
0.76530069 -0.016138405 0.19999999 2501157
0.76530069 -0.017614827 0.19999999 2566950
0.76530069 -0.019091256 0.19999999 2501157
0.76530069 -0.020567678 0.19999999 2501157
0.76530069 -0.022044107 0.19999999 2501157
0.76530069 -0.023520529 0.19999999 2501157
0.76530069 -0.024996959 0.19999999 2501157
0.76530069 -0.026473381 0.19999999 2566950
0.76530069 -0.02794981 0.19999999 2566950
0.76530069 -0.029426232 0.19999999 2698536
0.76530069 -0.030902654 0.19999999 2698536
0.76530069 -0.032379083 0.19999999 2698536
0.76530069 -0.033855505 0.19999999 2566950
0.76557553 -0.035530761 0.19899994 2566950
0.76557553 -0.037009798 0.19899994 2764329
0.76557553 -0.038488835 0.19899994 2764329
0.76557553 -0.039967872 0.19899994 2698536
0.76557553 -0.041446917 0.19899994 2764329
0.76530069 -0.042714059 0.19999999 2764329
0.76530069 -0.044190481 0.19999999 2567467
0.76530069 -0.045666911 0.19999999 2567467
0.76530069 -0.047143333 0.19999999 2567467
0.76530069 -0.048619755 0.19999999 2633513
0.76530069 -0.050096177 0.19999999 2633513
0.76530069 -0.051572599 0.19999999 2567720
0.76502579 -0.052818857 0.20099998 2698536
0.76502579 -0.054292671 0.20099998 2764329
0.76502579 -0.055766486 0.20099998 2764329
0.76475096 -0.057002284 0.20199996 2764329
0.76475096 -0.058473475 0.20199996 2698536
0.76475096 -0.059944682 0.20199996 2698536
0.76475096 -0.061415873 0.20199996 2764329
0.76475096 -0.06288708 0.20199996 2764329
0.76475096 -0.064358287 0.20199996 2698536
0.76475096 -0.065829478 0.20199996 2764329
0.76475096 -0.06730067 0.20199996 2764329
0.76475096 -0.068771876 0.20199996 2764329
0.76475096 -0.070243068 0.20199996 2764329
0.76502579 -0.071978413 0.20099998 2830122
0.76502579 -0.073452212 0.20099998 2830122
0.76557553 -0.075464793 0.19899994 2764329
0.76585042 -0.077215798 0.19799995 2830122
0.76640016 -0.079246663 0.19599998 2830122
0.76722479 -0.081565164 0.19299996 2961455
0.76749963 -0.083339714 0.19199997 3158834
0.76709133 0.030132473 0.18799996 2763554
0.76681906 0.028708532 0.18899995 3354921
0.76627457 0.027376268 0.19099998 3355437
0.7660023 0.025965389 0.19199997 3027499
0.76545775 0.024651416 0.19399995 2434341
0.76491326 0.023347899 0.19599998 2631720
0.76464105 0.021957923 0.19699997 2565927
0.76464105 0.020473659 0.19699997 2303525
0.76436877 0.019091524 0.19799995 2303525
0.76436877 0.017609872 0.19799995 2369318
0.7640965 0.016235579 0.19899994 2369318
0.7640965 0.014756538 0.19899994 2303525
0.7640965 0.013277501 0.19899994 2303525
0.76382422 0.011913665 0.19999999 2303525
0.76382422 0.010437243 0.19999999 2303525
0.76382422 0.0089608207 0.19999999 2369318
0.76382422 0.0074843913 0.19999999 2369571
0.76382422 0.0060079694 0.19999999 2435364
0.76382422 0.00453154 0.19999999 2435364
0.76355201 0.0031859875 0.20099998 2369571
0.76355201 0.0017121807 0.20099998 2435364
0.76355201 0.00023836643 0.20099998 2435364
0.76355201 -0.0012354478 0.20099998 2435364
0.76355201 -0.0027092621 0.20099998 2369571
0.76355201 -0.0041830689 0.20099998 2369571
0.76355201 -0.0056568831 0.20099998 2435364
0.76355201 -0.0071306974 0.20099998 2369571
0.76355201 -0.0086045042 0.20099998 2435364
0.76355201 -0.010078318 0.20099998 2435364
0.76382422 -0.011709139 0.19999999 2435364
0.76382422 -0.013185561 0.19999999 2435364
0.76382422 -0.014661983 0.19999999 2501157
0.76382422 -0.016138405 0.19999999 2501157
0.76382422 -0.017614827 0.19999999 2566950
0.76382422 -0.019091256 0.19999999 2566950
0.7640965 -0.020740375 0.19899994 2501157
0.7640965 -0.022219412 0.19899994 2566950
0.7640965 -0.023698449 0.19899994 2501157
0.76382422 -0.024996959 0.19999999 2501157
0.7640965 -0.026656531 0.19899994 2566950
0.7640965 -0.028135568 0.19899994 2566950
0.7640965 -0.029614605 0.19899994 2698536
0.7640965 -0.031093642 0.19899994 2698536
0.7640965 -0.032572679 0.19899994 2764329
0.7640965 -0.034051724 0.19899994 2566950
0.7640965 -0.035530761 0.19899994 2566950
0.7640965 -0.037009798 0.19899994 2764329
0.7640965 -0.038488835 0.19899994 2764329
0.7640965 -0.039967872 0.19899994 2698283
0.7640965 -0.041446917 0.19899994 2698283
0.7640965 -0.042925954 0.19899994 2764076
0.76382422 -0.044190481 0.19999999 2633260
0.76382422 -0.045666911 0.19999999 2567467
0.76382422 -0.047143333 0.19999999 2435881
0.76382422 -0.048619755 0.19999999 2633260
0.76382422 -0.050096177 0.19999999 2633260
0.76382422 -0.051572599 0.19999999 2567720
0.76355201 -0.052818857 0.20099998 2567720
0.76355201 -0.054292671 0.20099998 2633513
0.76355201 -0.055766486 0.20099998 2633513
0.76355201 -0.0572403 0.20099998 2633513
0.76327974 -0.058473475 0.20199996 2567720
0.76327974 -0.059944682 0.20199996 2567720
0.76327974 -0.061415873 0.20199996 2633513
0.76327974 -0.06288708 0.20199996 2764329
0.76327974 -0.064358287 0.20199996 2698536
0.76327974 -0.065829478 0.20199996 2764329
0.76355201 -0.06755697 0.20099998 2633513
0.76355201 -0.069030784 0.20099998 2633513
0.76355201 -0.070504598 0.20099998 2699306
0.76355201 -0.071978413 0.20099998 2764329
0.76382422 -0.073718973 0.19999999 2830122
0.7640965 -0.075464793 0.19899994 2764329
0.76464105 -0.077487789 0.19699997 2830122
0.76518553 -0.079521261 0.19499993 2895915
0.76573002 -0.081565164 0.19299996 3027248
0.76627457 -0.083619528 0.19099998 3158834
0.76585317 0.030051246 0.18699998 2960933
0.76531386 0.028708532 0.18899995 3289128
0.76504427 0.027289812 0.18999994 3355437
0.76450497 0.025965389 0.19199997 3027499
0.76423532 0.024559736 0.19299996 2434341
0.76369607 0.023253601 0.19499993 2435111
0.76342642 0.02186102 0.19599998 2435111
0.76315677 0.020473659 0.19699997 2303525
0.76288712 0.019091524 0.19799995 2303525
0.76288712 0.017609872 0.19799995 2369318
0.76288712 0.01612822 0.19799995 2369318
0.76288712 0.014646567 0.19799995 2303525
0.76261747 0.013277501 0.19899994 2303525
0.76261747 0.011798464 0.19899994 2303525
0.76261747 0.010319427 0.19899994 2303525
0.76261747 0.0088403895 0.19899994 2369318
0.76261747 0.0073613524 0.19899994 2303525
0.76261747 0.0058823079 0.19899994 2369318
0.76234782 0.00453154 0.19999999 2369318
0.76234782 0.003055118 0.19999999 2435111
0.76234782 0.0015786886 0.19999999 2435364
0.76234782 0.00010226667 0.19999999 2369571
0.76234782 -0.0013741627 0.19999999 2435364
0.76234782 -0.0028505847 0.19999999 2369571
0.76234782 -0.0043270066 0.19999999 2435364
0.76207817 -0.0056568831 0.20099998 2435364
0.76207817 -0.0071306974 0.20099998 2435364
0.76234782 -0.0087562874 0.19999999 2435364
0.76234782 -0.010232709 0.19999999 2435364
0.76234782 -0.011709139 0.19999999 2435364
0.76234782 -0.013185561 0.19999999 2501157
0.76234782 -0.014661983 0.19999999 2435364
0.76234782 -0.016138405 0.19999999 2501157
0.76261747 -0.017782301 0.19899994 2501157
0.76261747 -0.019261338 0.19899994 2501157
0.76261747 -0.020740375 0.19899994 2435364
0.76261747 -0.022219412 0.19899994 2566950
0.76261747 -0.023698449 0.19899994 2435364
0.76261747 -0.025177494 0.19899994 2501157
0.76261747 -0.026656531 0.19899994 2566950
0.76261747 -0.028135568 0.19899994 2566950
0.76261747 -0.029614605 0.19899994 2698536
0.76261747 -0.031093642 0.19899994 2698536
0.76261747 -0.032572679 0.19899994 2566950
0.76261747 -0.034051724 0.19899994 2501157
0.76261747 -0.035530761 0.19899994 2566950
0.76261747 -0.037009798 0.19899994 2698536
0.76261747 -0.038488835 0.19899994 2698283
0.76261747 -0.039967872 0.19899994 2698283
0.76261747 -0.041446917 0.19899994 2698283
0.76261747 -0.042925954 0.19899994 2698283
0.76234782 -0.044190481 0.19999999 2698283
0.76234782 -0.045666911 0.19999999 2698283
0.76234782 -0.047143333 0.19999999 2566697
0.76234782 -0.048619755 0.19999999 2764076
0.76234782 -0.050096177 0.19999999 2829869
0.76207817 -0.051345043 0.20099998 2698536
0.76207817 -0.052818857 0.20099998 2698536
0.76207817 -0.054292671 0.20099998 2764329
0.76207817 -0.055766486 0.20099998 2764329
0.76207817 -0.0572403 0.20099998 2764329
0.76207817 -0.058714099 0.20099998 2764329
0.76207817 -0.060187913 0.20099998 2698536
0.76207817 -0.061661728 0.20099998 2764329
0.76207817 -0.063135542 0.20099998 2764329
0.76207817 -0.064609356 0.20099998 2698536
0.76207817 -0.06608317 0.20099998 2764329
0.76207817 -0.06755697 0.20099998 2633513
0.76207817 -0.069030784 0.20099998 2633513
0.76234782 -0.070766129 0.19999999 2699306
0.76234782 -0.072242551 0.19999999 2699306
0.76261747 -0.073985748 0.19899994 2895915
0.76288712 -0.075734161 0.19799995 2830122
0.76315677 -0.077487789 0.19699997 2830122
0.76369607 -0.079521261 0.19499993 2895915
0.76423532 -0.081565164 0.19299996 3027248
0.76477462 -0.083619528 0.19099998 3355696
0.76434278 0.030051246 0.18699998 3157542
0.76380873 0.028708532 0.18899995 3223335
0.7635417 0.027289812 0.18999994 3223851
0.76327467 0.025876325 0.19099998 3092522
0.76274061 0.024559736 0.19299996 2368548
0.76220655 0.023253601 0.19499993 2500134
0.76193953 0.02186102 0.19599998 2434341
0.76193953 0.020374142 0.19599998 2237732
0.7616725 0.018989395 0.19699997 2303525
0.7616725 0.017505128 0.19699997 2303525
0.7616725 0.016020864 0.19699997 2303525
0.76140547 0.014646567 0.19799995 2237732
0.76140547 0.013164915 0.19799995 2303525
0.76140547 0.01168327 0.19799995 2303778
0.76113844 0.010319427 0.19899994 2303778
0.76113844 0.0088403895 0.19899994 2303778
0.76113844 0.0073613524 0.19899994 2303778
0.76113844 0.0058823079 0.19899994 2303778
0.76113844 0.0044032708 0.19899994 2303778
0.76113844 0.0029242337 0.19899994 2303778
0.76113844 0.0014451966 0.19899994 2303778
0.76113844 -3.3840537e-05 0.19899994 2303778
0.76087141 -0.0013741627 0.19999999 2303778
0.76087141 -0.0028505847 0.19999999 2369571
0.76087141 -0.0043270066 0.19999999 2303778
0.76087141 -0.005803436 0.19999999 2303778
0.76087141 -0.007279858 0.19999999 2369571
0.76087141 -0.0087562874 0.19999999 2435364
0.76087141 -0.010232709 0.19999999 2435364
0.76087141 -0.011709139 0.19999999 2369571
0.76087141 -0.013185561 0.19999999 2435364
0.76087141 -0.014661983 0.19999999 2435364
0.76113844 -0.016303256 0.19899994 2501157
0.76113844 -0.017782301 0.19899994 2435364
0.76113844 -0.019261338 0.19899994 2435364
0.76113844 -0.020740375 0.19899994 2435364
0.76113844 -0.022219412 0.19899994 2566950
0.76113844 -0.023698449 0.19899994 2435364
0.76113844 -0.025177494 0.19899994 2501157
0.76113844 -0.026656531 0.19899994 2501157
0.76113844 -0.028135568 0.19899994 2501157
0.76113844 -0.029614605 0.19899994 2566950
0.76140547 -0.031284623 0.19799995 2566950
0.76140547 -0.032766275 0.19799995 2566950
0.76113844 -0.034051724 0.19899994 2501157
0.76113844 -0.035530761 0.19899994 2566950
0.76113844 -0.037009798 0.19899994 2698536
0.76113844 -0.038488835 0.19899994 2566697
0.76113844 -0.039967872 0.19899994 2566697
0.76113844 -0.041446917 0.19899994 2698283
0.76087141 -0.042714059 0.19999999 2698283
0.76087141 -0.044190481 0.19999999 2566697
0.76087141 -0.045666911 0.19999999 2566697
0.76087141 -0.047143333 0.19999999 2566697
0.76087141 -0.048619755 0.19999999 2698536
0.76060438 -0.049871229 0.20099998 2764329
0.76060438 -0.051345043 0.20099998 2566950
0.76060438 -0.052818857 0.20099998 2566950
0.76060438 -0.054292671 0.20099998 2698536
0.76060438 -0.055766486 0.20099998 2764329
0.76060438 -0.0572403 0.20099998 2698536
0.76060438 -0.058714099 0.20099998 2698536
0.76060438 -0.060187913 0.20099998 2698536
0.76060438 -0.061661728 0.20099998 2567720
0.76060438 -0.063135542 0.20099998 2633513
0.76060438 -0.064609356 0.20099998 2567720
0.76060438 -0.06608317 0.20099998 2567720
0.76087141 -0.06781327 0.19999999 2567720
0.76087141 -0.069289707 0.19999999 2567720
0.76087141 -0.070766129 0.19999999 2567720
0.76113844 -0.072506718 0.19899994 2567720
0.76140547 -0.074252509 0.19799995 2764329
0.7616725 -0.076003529 0.19699997 2764329
0.76193953 -0.077759765 0.19599998 2764329
0.76247358 -0.07979586 0.19399995 2830122
0.76300764 -0.08184237 0.19199997 2961708
0.7635417 -0.083899371 0.18999994 3421230
0.76309681 0.029970016 0.18599993 3552300
0.762568 0.028624695 0.18799996 3223335
0.76230359 0.027203362 0.18899995 3223851
0.76203912 0.025787257 0.18999994 3092522
0.76151031 0.024468061 0.19199997 2434341
0.76124591 0.023065019 0.19299996 1907997
0.76071703 0.021764111 0.19499993 2368548
0.76045263 0.020374142 0.19599998 2106146
0.76045263 0.018887263 0.19599998 2237732
0.76045263 0.017400388 0.19599998 2106146
0.76018822 0.016020864 0.19699997 2237732
0.76018822 0.014536601 0.19699997 2237732
0.76018822 0.013052337 0.19699997 2237732
0.75992382 0.01168327 0.19799995 2237985
0.75992382 0.010201618 0.19799995 2237985
0.75992382 0.0087199658 0.19799995 2303778
0.75992382 0.0072383136 0.19799995 2303778
0.75992382 0.0057566613 0.19799995 2237985
0.75992382 0.004275009 0.19799995 2237985
0.75992382 0.0027933568 0.19799995 2237985
0.75965941 0.0014451966 0.19899994 2106399
0.75965941 -3.3840537e-05 0.19899994 2237985
0.75965941 -0.0015128851 0.19899994 2237985
0.75965941 -0.0029919222 0.19899994 2237985
0.75965941 -0.0044709593 0.19899994 2237985
0.75965941 -0.0059499964 0.19899994 2237985
0.759395 -0.007279858 0.19999999 2369571
0.759395 -0.0087562874 0.19999999 2237985
0.759395 -0.010232709 0.19999999 2237985
0.759395 -0.011709139 0.19999999 2369571
0.759395 -0.013185561 0.19999999 2369571
0.759395 -0.014661983 0.19999999 2369571
0.75965941 -0.016303256 0.19899994 2303778
0.75965941 -0.017782301 0.19899994 2303778
0.75965941 -0.019261338 0.19899994 2303778
0.75965941 -0.020740375 0.19899994 2303778
0.75965941 -0.022219412 0.19899994 2435364
0.75965941 -0.023698449 0.19899994 2369571
0.75992382 -0.025358014 0.19799995 2435364
0.75992382 -0.026839666 0.19799995 2435364
0.75992382 -0.028321318 0.19799995 2369571
0.75992382 -0.029802971 0.19799995 2501157
0.75992382 -0.031284623 0.19799995 2435364
0.75992382 -0.032766275 0.19799995 2435364
0.75992382 -0.03424792 0.19799995 2369571
0.75992382 -0.035729572 0.19799995 2435364
0.75992382 -0.037211224 0.19799995 2435364
0.75965941 -0.038488835 0.19899994 2369571
0.75965941 -0.039967872 0.19899994 2435364
0.75965941 -0.041446917 0.19899994 2435364
0.75965941 -0.042925954 0.19899994 2435364
0.759395 -0.044190481 0.19999999 2435364
0.759395 -0.045666911 0.19999999 2435364
0.759395 -0.047143333 0.19999999 2369571
0.7591306 -0.048397414 0.20099998 2435364
0.7591306 -0.049871229 0.20099998 2501157
0.7591306 -0.051345043 0.20099998 2435364
0.7591306 -0.052818857 0.20099998 2369571
0.7591306 -0.054292671 0.20099998 2435364
0.7591306 -0.055766486 0.20099998 2435364
0.7591306 -0.0572403 0.20099998 2435364
0.7591306 -0.058714099 0.20099998 2501157
0.7591306 -0.060187913 0.20099998 2501157
0.7591306 -0.061661728 0.20099998 2501157
0.7591306 -0.063135542 0.20099998 2436134
0.759395 -0.064860441 0.19999999 2436134
0.759395 -0.066336863 0.19999999 2436134
0.759395 -0.06781327 0.19999999 2370341
0.75965941 -0.069548644 0.19899994 2436134
0.75965941 -0.071027674 0.19899994 2567720
0.75965941 -0.072506718 0.19899994 2501157
0.75992382 -0.074252509 0.19799995 2698536
0.76018822 -0.076003529 0.19699997 2698536
0.76071703 -0.078031771 0.19499993 2698536
0.76124591 -0.080070458 0.19299996 2764329
0.76177472 -0.082119577 0.19099998 2961708
0.76203912 -0.083899371 0.18999994 3355437
0.76158381 0.029970016 0.18599993 3421484
0.76132202 0.028540853 0.18699998 3157542
0.76079839 0.027203362 0.18899995 3223851
0.76053661 0.025787257 0.18999994 3092522
0.76027477 0.024376381 0.19099998 2566180
0.76001298 0.022970729 0.19199997 2105629
0.7597512 0.021570303 0.19299996 2171169
0.75922757 0.020274621 0.19499993 2105376
0.75922757 0.018785127 0.19499993 2171169
0.75896579 0.017400388 0.19599998 2171169
0.75896579 0.015913509 0.19599998 2171169
0.75896579 0.014426634 0.19599998 2171169
0.75870395 0.013052337 0.19699997 2040353
0.75870395 0.011568077 0.19699997 1974560
0.75870395 0.010083809 0.19699997 2040353
0.75870395 0.0085995421 0.19699997 2106399
0.75870395 0.0071152821 0.19699997 2040606
0.75870395 0.0056310147 0.19699997 2040606
0.75844216 0.004275009 0.19799995 2040606
0.75844216 0.0027933568 0.19799995 2040606
0.75844216 0.001311712 0.19799995 2040606
0.75844216 -0.00016994029 0.19799995 1974813
0.75818038 -0.0015128851 0.19899994 1909020
0.75818038 -0.0029919222 0.19899994 1974813
0.75818038 -0.0044709593 0.19899994 2171422
0.75818038 -0.0059499964 0.19899994 2171422
0.75818038 -0.0074290335 0.19899994 2171422
0.75818038 -0.0089080706 0.19899994 2171422
0.75818038 -0.010387115 0.19899994 2040606
0.75818038 -0.011866152 0.19899994 2040606
0.75818038 -0.013345189 0.19899994 2106399
0.75818038 -0.014824219 0.19899994 2106399
0.75818038 -0.016303256 0.19899994 2106399
0.75818038 -0.017782301 0.19899994 2106399
0.75818038 -0.019261338 0.19899994 2106399
0.75818038 -0.020740375 0.19899994 2106399
0.75844216 -0.022394709 0.19799995 2237985
0.75844216 -0.023876362 0.19799995 2237985
0.75844216 -0.025358014 0.19799995 2369571
0.75844216 -0.026839666 0.19799995 2303778
0.75844216 -0.028321318 0.19799995 2237985
0.75844216 -0.029802971 0.19799995 2435364
0.75844216 -0.031284623 0.19799995 2369571
0.75844216 -0.032766275 0.19799995 2369571
0.75844216 -0.03424792 0.19799995 2303778
0.75844216 -0.035729572 0.19799995 2369571
0.75844216 -0.037211224 0.19799995 2303778
0.75844216 -0.038692877 0.19799995 2303778
0.75818038 -0.039967872 0.19899994 2303778
0.75818038 -0.041446917 0.19899994 2303778
0.75818038 -0.042925954 0.19899994 2369571
0.75791854 -0.044190481 0.19999999 2369571
0.75791854 -0.045666911 0.19999999 2435364
0.75791854 -0.047143333 0.19999999 2303778
0.75765675 -0.048397414 0.20099998 2369571
0.75765675 -0.049871229 0.20099998 2369571
0.75765675 -0.051345043 0.20099998 2369571
0.75765675 -0.052818857 0.20099998 2303778
0.75765675 -0.054292671 0.20099998 2303778
0.75765675 -0.055766486 0.20099998 2369571
0.75765675 -0.0572403 0.20099998 2369571
0.75765675 -0.058714099 0.20099998 2435364
0.75765675 -0.060187913 0.20099998 2303778
0.75765675 -0.061661728 0.20099998 2435364
0.75765675 -0.063135542 0.20099998 2369571
0.75791854 -0.064860441 0.19999999 2369571
0.75791854 -0.066336863 0.19999999 2369571
0.75791854 -0.06781327 0.19999999 2435364
0.75818038 -0.069548644 0.19899994 2435364
0.75818038 -0.071027674 0.19899994 2501157
0.75844216 -0.072770856 0.19799995 2435364
0.75870395 -0.074519254 0.19699997 2501157
0.75896579 -0.076272897 0.19599998 2435364
0.75922757 -0.078031771 0.19499993 2501157
0.7597512 -0.080070458 0.19299996 2566950
0.76027477 -0.082119577 0.19099998 2960938
0.76053661 -0.083899371 0.18999994 2895145
0.76032996 0.02988879 0.18499994 4473918
0.75981158 0.028540853 0.18699998 3026472
0.75955242 0.02711691 0.18799996 3026474
0.7592932 0.025698192 0.18899995 3092524
0.75903404 0.024284698 0.18999994 2829352
0.75851566 0.022970729 0.19199997 2237215
0.75825644 0.021570303 0.19299996 1973790
0.75773811 0.020274621 0.19499993 1973790
0.75773811 0.018785127 0.19499993 2039583
0.75773811 0.017295636 0.19499993 1973790
0.75773811 0.015806146 0.19499993 1907997
0.75747889 0.014426634 0.19599998 1973790
0.75747889 0.012939751 0.19599998 2039583
0.75747889 0.011452876 0.19599998 1907997
0.75747889 0.0099660009 0.19599998 1973790
0.75747889 0.0084791258 0.19599998 2105376
0.75747889 0.0069922432 0.19599998 2105376
0.75721967 0.0056310147 0.19699997 2105629
0.75721967 0.0041467473 0.19699997 2105629
0.75721967 0.0026624873 0.19699997 2039836
0.75721967 0.0011782199 0.19699997 2039836
0.75696051 -0.00016994029 0.19799995 2105629
0.75696051 -0.0016515926 0.19799995 1908250
0.75696051 -0.0031332448 0.19799995 1974043
0.75696051 -0.0046148971 0.19799995 2105629
0.75670135 -0.0059499964 0.19899994 1974043
0.75670135 -0.0074290335 0.19899994 2105629
0.75670135 -0.0089080706 0.19899994 2039836
0.75670135 -0.010387115 0.19899994 2105629
0.75670135 -0.011866152 0.19899994 2105629
0.75670135 -0.013345189 0.19899994 2105629
0.75670135 -0.014824219 0.19899994 2171422
0.75670135 -0.016303256 0.19899994 2171422
0.75670135 -0.017782301 0.19899994 2171422
0.75696051 -0.019431405 0.19799995 1974813
0.75696051 -0.020913057 0.19799995 1909020
0.75696051 -0.022394709 0.19799995 2040606
0.75696051 -0.023876362 0.19799995 2237985
0.75696051 -0.025358014 0.19799995 2040606
0.75696051 -0.026839666 0.19799995 2237215
0.75696051 -0.028321318 0.19799995 2237215
0.75696051 -0.029802971 0.19799995 2434594
0.75696051 -0.031284623 0.19799995 2237215
0.75696051 -0.032766275 0.19799995 2237215
0.75696051 -0.03424792 0.19799995 2171422
0.75696051 -0.035729572 0.19799995 2237215
0.75696051 -0.037211224 0.19799995 1974813
0.75696051 -0.038692877 0.19799995 1974813
0.75696051 -0.040174529 0.19799995 2106399
0.75670135 -0.041446917 0.19899994 2106399
0.75670135 -0.042925954 0.19899994 2237985
0.75670135 -0.044404991 0.19899994 2303778
0.75644213 -0.045666911 0.19999999 2566180
0.75644213 -0.047143333 0.19999999 2171422
0.75644213 -0.048619755 0.19999999 2237215
0.75618291 -0.049871229 0.20099998 2368801
0.75618291 -0.051345043 0.20099998 2105629
0.75618291 -0.052818857 0.20099998 2040606
0.75618291 -0.054292671 0.20099998 2237985
0.75618291 -0.055766486 0.20099998 2369571
0.75618291 -0.0572403 0.20099998 2237985
0.75618291 -0.058714099 0.20099998 2171422
0.75618291 -0.060187913 0.20099998 2237215
0.75618291 -0.061661728 0.20099998 2368801
0.75644213 -0.063384004 0.19999999 2106399
0.75644213 -0.064860441 0.19999999 2237985
0.75644213 -0.066336863 0.19999999 2106399
0.75670135 -0.068069585 0.19899994 2369571
0.75670135 -0.069548644 0.19899994 2106399
0.75696051 -0.071289204 0.19799995 2237985
0.75696051 -0.072770856 0.19799995 2369571
0.75721967 -0.074519254 0.19699997 2106399
0.75747889 -0.076272897 0.19599998 2369571
0.75799727 -0.078303747 0.19399995 2566180
0.75851566 -0.080345057 0.19199997 2500387
0.75877482 -0.082119577 0.19099998 2960938
0.7592932 -0.0841792 0.18899995 2237213
0.75881433 0.02988879 0.18499994 4079160
0.7585578 0.028457012 0.18599993 2960679
0.7580446 0.02711691 0.18799996 3158060
0.75778806 0.025698192 0.18899995 3026731
0.75753146 0.024284698 0.18999994 2894892
0.75727487 0.022876438 0.19099998 2236962
0.75701833 0.0214734 0.19199997 1973790
0.75676173 0.020075586 0.19299996 1973790
0.75650519 0.018682998 0.19399995 1973790
0.75650519 0.017190892 0.19399995 1973790
0.75624859 0.015806146 0.19499993 1776411
0.75624859 0.014316656 0.19499993 1710618
0.75624859 0.012827165 0.19499993 1776411
0.75624859 0.011337675 0.19499993 1907997
0.755992 0.0099660009 0.19599998 1973790
0.755992 0.0084791258 0.19599998 1907997
0.755992 0.0069922432 0.19599998 2039583
0.755992 0.0055053681 0.19599998 2105629
0.755992 0.004018493 0.19599998 2039836
0.755992 0.0025316104 0.19599998 1974043
0.75573546 0.0011782199 0.19699997 1908250
0.75573546 -0.0003060475 0.19699997 1974043
0.75573546 -0.0017903075 0.19699997 1908250
0.75573546 -0.0032745749 0.19699997 1974043
0.75547886 -0.0046148971 0.19799995 2039836
0.75547886 -0.0060965493 0.19799995 1974043
0.75547886 -0.0075782016 0.19799995 2039836
0.75547886 -0.0090598539 0.19799995 2039836
0.75547886 -0.010541506 0.19799995 2039836
0.75547886 -0.012023158 0.19799995 2039836
0.75547886 -0.013504811 0.19799995 2039836
0.75547886 -0.014986448 0.19799995 2039836
0.75547886 -0.0164681 0.19799995 2171422
0.75547886 -0.017949753 0.19799995 2105629
0.75547886 -0.019431405 0.19799995 2171422
0.75547886 -0.020913057 0.19799995 2171422
0.75547886 -0.022394709 0.19799995 2040606
0.75547886 -0.023876362 0.19799995 1974813
0.75573546 -0.025538534 0.19699997 1974813
0.75573546 -0.027022801 0.19699997 1974813
0.75573546 -0.028507069 0.19699997 1974813
0.75573546 -0.029991329 0.19699997 2040606
0.75573546 -0.031475596 0.19699997 2040606
0.75573546 -0.032959864 0.19699997 2040606
0.75573546 -0.034444124 0.19699997 2040606
0.75573546 -0.035928391 0.19699997 2237985
0.75573546 -0.037412658 0.19699997 2106399
0.75547886 -0.038692877 0.19799995 2040606
0.75547886 -0.040174529 0.19799995 2040606
0.75547886 -0.041656181 0.19799995 1909020
0.75522232 -0.042925954 0.19899994 1909020
0.75522232 -0.044404991 0.19899994 2105629
0.75522232 -0.045884028 0.19899994 2368548
0.75496572 -0.047143333 0.19999999 2237215
0.75496572 -0.048619755 0.19999999 2237215
0.75496572 -0.050096177 0.19999999 2171422
0.75496572 -0.051572599 0.19999999 2237215
0.75496572 -0.053049035 0.19999999 2237215
0.75470912 -0.054292671 0.20099998 2368801
0.75470912 -0.055766486 0.20099998 2237215
0.75496572 -0.057478301 0.19999999 2368801
0.75496572 -0.058954723 0.19999999 2237215
0.75496572 -0.06043116 0.19999999 2368801
0.75496572 -0.061907582 0.19999999 2237215
0.75496572 -0.063384004 0.19999999 2237985
0.75496572 -0.064860441 0.19999999 2106399
0.75522232 -0.066590555 0.19899994 2106399
0.75522232 -0.068069585 0.19899994 2369571
0.75522232 -0.069548644 0.19899994 2106399
0.75547886 -0.071289204 0.19799995 2501157
0.75547886 -0.072770856 0.19799995 2369571
0.75573546 -0.074519254 0.19699997 2566950
0.755992 -0.076272897 0.19599998 2369571
0.75650519 -0.078303747 0.19399995 2434341
0.75701833 -0.080345057 0.19199997 2434341
0.75727487 -0.082119577 0.19099998 2895145
0.75778806 -0.0841792 0.18899995 3026729
0.75755268 0.029807568 0.18399996 4276796
0.75729871 0.028373174 0.18499994 3158058
0.75679082 0.027030457 0.18699998 3026731
0.75653684 0.025609128 0.18799996 3026731
0.75628287 0.024193022 0.18899995 2960938
0.75602889 0.022782143 0.18999994 2171422
0.75577497 0.021376494 0.19099998 1973790
0.75526702 0.020075586 0.19299996 1908250
0.75526702 0.018580869 0.19299996 1974043
0.75526702 0.017086152 0.19299996 1908250
0.75526702 0.015591431 0.19299996 1974043
0.75501305 0.014206685 0.19399995 1710871
0.75501305 0.01271458 0.19399995 2039836
0.75475907 0.011337675 0.19499993 1776664
0.75475907 0.0098481849 0.19499993 1908250
0.75475907 0.0083586946 0.19499993 1908250
0.75475907 0.0068692043 0.19499993 1974043
0.75475907 0.0053797141 0.19499993 1974043
0.75475907 0.0038902238 0.19499993 2039836
0.75475907 0.0024007261 0.19499993 1974043
0.75450516 0.0010447353 0.19599998 1974043
0.75450516 -0.00044214725 0.19599998 1974043
0.75450516 -0.0019290224 0.19599998 1908250
0.75450516 -0.0034158975 0.19599998 2039836
0.75425118 -0.0047588348 0.19699997 2105629
0.75425118 -0.0062431023 0.19699997 2039836
0.75425118 -0.0077273697 0.19699997 2105629
0.75425118 -0.0092116296 0.19699997 2039836
0.75399721 -0.010541506 0.19799995 2039836
0.75399721 -0.012023158 0.19799995 2039836
0.75399721 -0.013504811 0.19799995 2039836
0.75399721 -0.014986448 0.19799995 2039836
0.75399721 -0.0164681 0.19799995 1974043
0.75425118 -0.018117212 0.19699997 2039836
0.75425118 -0.019601479 0.19699997 2105629
0.75425118 -0.021085739 0.19699997 2105629
0.75425118 -0.022570007 0.19699997 1974813
0.75425118 -0.024054274 0.19699997 1909020
0.75425118 -0.025538534 0.19699997 1909020
0.75425118 -0.027022801 0.19699997 1974813
0.75425118 -0.028507069 0.19699997 1909020
0.75450516 -0.030179694 0.19599998 1909020
0.75425118 -0.031475596 0.19699997 1843997
0.75425118 -0.032959864 0.19699997 1778204
0.75425118 -0.034444124 0.19699997 1909020
0.75425118 -0.035928391 0.19699997 1909020
0.75425118 -0.037412658 0.19699997 1974813
0.75425118 -0.038896918 0.19699997 2171422
0.75425118 -0.040381186 0.19699997 2105627
0.75425118 -0.041865446 0.19699997 2039834
0.75399721 -0.043137833 0.19799995 2105627
0.75399721 -0.044619486 0.19799995 1974813
0.75399721 -0.046101138 0.19799995 2105629
0.75374323 -0.047363065 0.19899994 2237215
0.75374323 -0.048842095 0.19899994 2105629
0.75374323 -0.050321139 0.19899994 2171422
0.75348926 -0.051572599 0.19999999 2237215
0.75348926 -0.053049035 0.19999999 2368801
0.75348926 -0.054525457 0.19999999 2171420
0.75348926 -0.056001879 0.19999999 2105627
0.75348926 -0.057478301 0.19999999 2237213
0.75348926 -0.058954723 0.19999999 2171422
0.75348926 -0.06043116 0.19999999 2237215
0.75348926 -0.061907582 0.19999999 2237215
0.75348926 -0.063384004 0.19999999 2106399
0.75374323 -0.065111525 0.19899994 2106399
0.75374323 -0.066590555 0.19899994 2040606
0.75374323 -0.068069585 0.19899994 2237215
0.75399721 -0.069807552 0.19799995 2237985
0.75399721 -0.071289204 0.19799995 2237985
0.75425118 -0.073034994 0.19699997 2106399
0.75450516 -0.074786015 0.19599998 2303778
0.75475907 -0.076542281 0.19499993 2237985
0.75526702 -0.078575738 0.19299996 2237985
0.755521 -0.080345057 0.19199997 2303778
0.75602889 -0.082396813 0.18999994 2435364
0.75628287 -0.0841792 0.18899995 5789778
0.75603449 0.029807568 0.18399996 4079417
0.75578314 0.028373174 0.18499994 3092265
0.75553179 0.026944 0.18599993 3026731
0.75502908 0.025609128 0.18799996 3026731
0.75502908 0.024101343 0.18799996 2960938
0.75452638 0.022782143 0.18999994 2171422
0.75427502 0.021376494 0.19099998 1908250
0.75402367 0.019976068 0.19199997 1908250
0.75402367 0.018478736 0.19199997 1908250
0.75402367 0.016981408 0.19199997 1908250
0.75377232 0.015591431 0.19299996 1974043
0.75377232 0.014096715 0.19299996 1710871
0.75377232 0.012602001 0.19299996 1974043
0.75377232 0.011107288 0.19299996 1776664
0.75352097 0.0097303763 0.19399995 1908250
0.75352097 0.0082382709 0.19399995 1908250
0.75352097 0.0067461655 0.19399995 1974043
0.75352097 0.0052540675 0.19399995 1908250
0.75352097 0.0037619621 0.19399995 2039836
0.75326961 0.0024007261 0.19499993 1908250
0.75326961 0.00091123581 0.19499993 1908250
0.75326961 -0.00057825446 0.19499993 1974043
0.75326961 -0.0020677447 0.19499993 1908250
0.75326961 -0.003557235 0.19499993 1908250
0.75301826 -0.0049027801 0.19599998 2039836
0.75301826 -0.0063896552 0.19599998 1974043
0.75301826 -0.0078765303 0.19599998 1974043
0.75276691 -0.0092116296 0.19699997 2039836
0.75276691 -0.010695897 0.19699997 1908250
0.75276691 -0.012180164 0.19699997 1974043
0.75276691 -0.013664424 0.19699997 2039836
0.75276691 -0.015148684 0.19699997 2105629
0.75276691 -0.016632944 0.19699997 2039836
0.75276691 -0.018117212 0.19699997 2039836
0.75276691 -0.019601479 0.19699997 1974043
0.75301826 -0.021258429 0.19599998 1974043
0.75301826 -0.022745304 0.19599998 1974043
0.75301826 -0.024232179 0.19599998 2105629
0.75301826 -0.025719061 0.19599998 2105629
0.75301826 -0.027205937 0.19599998 2105629
0.75301826 -0.028692819 0.19599998 2171422
0.75301826 -0.030179694 0.19599998 2105629
0.75301826 -0.031666569 0.19599998 1974813
0.75301826 -0.033153452 0.19599998 1974813
0.75301826 -0.034640327 0.19599998 2040606
0.75301826 -0.036127202 0.19599998 2040606
0.75301826 -0.037614085 0.19599998 2039836
0.75301826 -0.03910096 0.19599998 2105629
0.75301826 -0.040587842 0.19599998 2171420
0.75301826 -0.042074718 0.19599998 2039834
0.75276691 -0.043349713 0.19699997 2039834
0.75276691 -0.044833981 0.19699997 1974811
0.75276691 -0.04631824 0.19699997 1974811
0.75251555 -0.04758279 0.19799995 1974813
0.75251555 -0.049064435 0.19799995 1974813
0.75251555 -0.050546087 0.19799995 2040606
0.7522642 -0.051800169 0.19899994 1974813
0.7522642 -0.053279214 0.19899994 2237213
0.7522642 -0.054758258 0.19899994 2171163
0.7522642 -0.056237288 0.19899994 2565921
0.7522642 -0.057716332 0.19899994 2434335
0.7522642 -0.059195362 0.19899994 2237215
0.7522642 -0.060674407 0.19899994 2434594
0.7522642 -0.062153451 0.19899994 2040606
0.7522642 -0.063632481 0.19899994 2172962
0.7522642 -0.065111525 0.19899994 1975583
0.75251555 -0.066844247 0.19799995 2237985
0.75251555 -0.0683259 0.19799995 1974813
0.75276691 -0.070066474 0.19699997 2303778
0.75276691 -0.071550734 0.19699997 2106399
0.75276691 -0.073034994 0.19699997 2303778
0.75301826 -0.074786015 0.19599998 2303778
0.75352097 -0.076811649 0.19399995 2237985
0.75377232 -0.078575738 0.19299996 2303778
0.75427502 -0.080619641 0.19099998 2369571
0.75452638 -0.082396813 0.18999994 2237215
0.75476497 0.029726341 0.18299997 4408125
0.75426745 0.028373174 0.18499994 3158058
0.75401878 0.026944 0.18599993 2960938
0.75376999 0.025520064 0.18699998 3026731
0.75352126 0.024101343 0.18799996 2895145
0.75327253 0.022687852 0.18899995 2105629
0.7530238 0.021279585 0.18999994 1776664
0.75277507 0.019876551 0.19099998 1776664
0.75252634 0.018478736 0.19199997 1776664
0.75252634 0.016981408 0.19199997 1776664
0.75252634 0.015484076 0.19199997 1908250
0.75252634 0.013986744 0.19199997 1710871
0.75252634 0.012489416 0.19199997 1908250
0.75252634 0.010992087 0.19199997 1776664
0.75227761 0.0096125677 0.19299996 1776664
0.75227761 0.0081178471 0.19299996 1776664
0.75227761 0.006623134 0.19299996 1908250
0.75227761 0.0051284134 0.19299996 1974043
0.75227761 0.0036337003 0.19299996 1908250
0.75227761 0.0021389797 0.19299996 1908250
0.75227761 0.00064426661 0.19299996 1908250
0.75202882 -0.00071435422 0.19399995 1974043
0.75202882 -0.0022064596 0.19399995 1908250
0.75202882 -0.0036985651 0.19399995 1908250
0.75178015 -0.0050467253 0.19499993 1974043
0.75178015 -0.0065362155 0.19499993 1974043
0.75178015 -0.0080257058 0.19499993 1974043
0.75178015 -0.0095151961 0.19499993 1974043
0.75153136 -0.010850288 0.19599998 1908250
0.75153136 -0.012337171 0.19599998 1908250
0.75153136 -0.013824046 0.19599998 1974043
0.75153136 -0.015310913 0.19599998 2039836
0.75153136 -0.016797796 0.19599998 2039836
0.75153136 -0.018284671 0.19599998 1974043
0.75153136 -0.019771546 0.19599998 1974043
0.75153136 -0.021258429 0.19599998 1974043
0.75153136 -0.022745304 0.19599998 1974043
0.75153136 -0.024232179 0.19599998 2105629
0.75153136 -0.025719061 0.19599998 2105629
0.75153136 -0.027205937 0.19599998 2105629
0.75153136 -0.028692819 0.19599998 2171422
0.75153136 -0.030179694 0.19599998 2105629
0.75178015 -0.031857558 0.19499993 1974813
0.75178015 -0.033347048 0.19499993 1974813
0.75178015 -0.034836538 0.19499993 2040606
0.75178015 -0.036326028 0.19499993 2040606
0.75178015 -0.037815526 0.19499993 2039836
0.75178015 -0.039305016 0.19499993 2105629
0.75178015 -0.040794507 0.19499993 2171420
0.75153136 -0.042074718 0.19599998 2039834
0.75153136 -0.043561593 0.19599998 2039834
0.75153136 -0.045048475 0.19599998 2105627
0.75153136 -0.04653535 0.19599998 1974811
0.75128263 -0.047802508 0.19699997 1974813
0.75128263 -0.04928676 0.19699997 1974813
0.75128263 -0.050771035 0.19699997 2040606
0.75128263 -0.052255295 0.19699997 1974813
0.75128263 -0.053739555 0.19699997 2171422
0.7510339 -0.054991044 0.19799995 2171163
0.7510339 -0.056472696 0.19799995 2500128
0.7510339 -0.057954349 0.19799995 2434335
0.7510339 -0.059435986 0.19799995 2302751
0.7510339 -0.060917638 0.19799995 2237215
0.7510339 -0.062399291 0.19799995 2040606
0.7510339 -0.063880943 0.19799995 1975583
0.7510339 -0.06536261 0.19799995 1909790
0.75128263 -0.06709794 0.19699997 1975583
0.75128263 -0.0685822 0.19699997 1974813
0.75128263 -0.070066474 0.19699997 2106399
0.75153136 -0.071812265 0.19599998 2040606
0.75153136 -0.073299147 0.19599998 2040606
0.75178015 -0.07505279 0.19499993 2237985
0.75227761 -0.077081017 0.19299996 2237985
0.75252634 -0.078847714 0.19199997 2303778
0.7530238 -0.080894254 0.18999994 2369571
0.75327253 -0.082674019 0.18899995 2631973
0.75349021 0.031168576 0.18199998 5789778
0.7532441 0.029726341 0.18299997 5000262
0.75275189 0.028373174 0.18499994 3026731
0.75250578 0.026944 0.18599993 2960938
0.75225961 0.025520064 0.18699998 3026731
0.7520135 0.024101343 0.18799996 2763302
0.7517674 0.022687852 0.18899995 2105372
0.75152123 0.021279585 0.18999994 1842200
0.75127512 0.019876551 0.19099998 1776664
0.75127512 0.018376607 0.19099998 1776664
0.75127512 0.016876664 0.19099998 1776664
0.75127512 0.015376721 0.19099998 1908250
