# .PCD v0.7 - Point Cloud Data file format
VERSION 0.7
FIELDS x y z rgb
SIZE 4 4 4 4
TYPE F F F U
COUNT 1 1 1 1
WIDTH 108
HEIGHT 1
VIEWPOINT 0 0 0 1 0 0 0
POINTS 108
DATA ascii
0.73403144 -0.11523882 0.14199996 4999494
0.73240346 -0.11523882 0.14199996 4998981
0.73077548 -0.11523882 0.14199996 4933188
0.72838247 -0.11238701 0.14599997 5525325
0.72895622 -0.11493025 0.14299995 4933188
0.72657633 -0.11208106 0.14699996 6314071
0.72714221 -0.11462169 0.14399993 4735039
0.72477537 -0.11177511 0.14799994 6248278
0.72533339 -0.1143131 0.14499998 5458762
0.72589147 -0.11686682 0.14199996 4934469
0.72316307 -0.11177511 0.14799994 6249046
0.72352988 -0.11400454 0.14599997 5327944
0.72426349 -0.11686682 0.14199996 5000262
0.72136992 -0.11146916 0.14899993 6249046
0.72191232 -0.11400454 0.14599997 5459530
0.72227395 -0.11624446 0.14399993 4934469
0.71976024 -0.11146916 0.14899993 6578011
0.72011662 -0.11369597 0.14699996 4933186
0.72065115 -0.11624446 0.14399993 4737090
0.72100753 -0.1184948 0.14199996 4999744
0.71815056 -0.11146916 0.14899993 6577495
0.71850169 -0.11369597 0.14699996 4472119
0.71902841 -0.11624446 0.14399993 4736320
0.71937954 -0.1184948 0.14199996 4670779
0.7163679 -0.11116319 0.14999998 6445396
0.71688676 -0.11369597 0.14699996 4471606
0.7172327 -0.11593326 0.14499998 4473148
0.71775156 -0.1184948 0.14199996 4538941
0.71493119 -0.11146916 0.14899993 6642775
0.71527183 -0.11369597 0.14699996 4668985
0.71561253 -0.11593326 0.14499998 4407357
0.71612358 -0.1184948 0.14199996 4407355
0.71332145 -0.11146916 0.14899993 6709081
0.7136569 -0.11369597 0.14699996 4603705
0.71416014 -0.11624446 0.14399993 4341051
0.7144956 -0.1184948 0.14199996 4209978
0.71171176 -0.11146916 0.14899993 6972253
0.71204203 -0.11369597 0.14699996 4603705
0.71253735 -0.11624446 0.14399993 4275258
0.71286762 -0.1184948 0.14199996 4209976
0.71010208 -0.11146916 0.14899993 7301218
0.71042711 -0.11369597 0.14699996 4274740
0.71091461 -0.11624446 0.14399993 4275258
0.71123958 -0.1184948 0.14199996 4144185
0.7084924 -0.11146916 0.14899993 7498343
0.70897204 -0.11400454 0.14599997 4274486
0.70929182 -0.11624446 0.14399993 4143672
0.70688272 -0.11146916 0.14899993 7564136
0.70735455 -0.11400454 0.14599997 4274486
0.70766908 -0.11624446 0.14399993 4143672
0.70798361 -0.1184948 0.14199996 4078390
0.70527297 -0.11146916 0.14899993 7826795
0.70573699 -0.11400454 0.14599997 4471352
0.70604634 -0.11624446 0.14399993 4143670
0.70366329 -0.11146916 0.14899993 7826795
0.70411944 -0.11400454 0.14599997 4471352
0.70442355 -0.11624446 0.14399993 4274486
0.70472765 -0.1184948 0.14199996 4012851
0.70205361 -0.11146916 0.14899993 8484979
0.70250189 -0.11400454 0.14599997 4471606
0.70280081 -0.11624446 0.14399993 4274486
0.70044392 -0.11146916 0.14899993 8550772
0.7008844 -0.11400454 0.14599997 4471606
0.70117801 -0.11624446 0.14399993 4274486
0.69883424 -0.11146916 0.14899993 8616565
0.69926685 -0.11400454 0.14599997 4471606
0.69955528 -0.11624446 0.14399993 4274486
0.6972245 -0.11146916 0.14899993 9011069
0.6976493 -0.11400454 0.14599997 4471352
0.69793248 -0.11624446 0.14399993 4340279
0.69561481 -0.11146916 0.14899993 9208448
0.69603175 -0.11400454 0.14599997 4471352
0.69630975 -0.11624446 0.14399993 4340279
0.69400513 -0.11146916 0.14899993 8945791
0.69441426 -0.11400454 0.14599997 4406074
0.69468701 -0.11624446 0.14399993 4340281
0.69239545 -0.11146916 0.14899993 9537928
0.69279671 -0.11400454 0.14599997 4406074
0.69319797 -0.11655564 0.14299995 4340028
0.69078577 -0.11146916 0.14899993 9604491
0.69117916 -0.11400454 0.14599997 4275258
0.69157261 -0.11655564 0.14299995 4405821
0.68917602 -0.11146916 0.14899993 9736077
0.68956161 -0.11400454 0.14599997 4538430
0.69007576 -0.11686682 0.14199996 4340798
0.68756634 -0.11146916 0.14899993 9736077
0.68794411 -0.11400454 0.14599997 4472637
0.68844777 -0.11686682 0.14199996 4209725
0.68595666 -0.11146916 0.14899993 9735305
0.68632656 -0.11400454 0.14599997 3879728
0.68434697 -0.11146916 0.14899993 9933454
0.68482971 -0.1143131 0.14499998 3617326
0.68273723 -0.11146916 0.14899993 10130833
0.68309152 -0.11400454 0.14599997 4275258
0.68101209 -0.11116319 0.14999998 10196628
0.68135852 -0.11369597 0.14699996 4670529
0.67917931 -0.11055128 0.15199995 10262421
0.67963076 -0.11338741 0.14799994 4012086
0.67757744 -0.11055128 0.15199995 10196626
0.67779791 -0.11277025 0.14999998 4736322
0.67576033 -0.10993936 0.15399998 10065553
0.67597562 -0.11215312 0.15199995 4340798
0.67405868 -0.10963341 0.15499997 9867661
0.6741637 -0.11153597 0.15399998 4800319
0.67215747 -0.10871554 0.15799993 10064270
0.67037171 -0.10810363 0.15999997 9998477
0.6686936 -0.10779767 0.16099995 10130835
0.66683155 -0.10687979 0.16399997 10196628
