# .PCD v0.7 - Point Cloud Data file format
VERSION 0.7
FIELDS x y z rgb
SIZE 4 4 4 4
TYPE F F F U
COUNT 1 1 1 1
WIDTH 235
HEIGHT 1
VIEWPOINT 0 0 0 1 0 0 0
POINTS 235
DATA ascii
0.75959742 0.052522697 0.14399993 3882038
0.75821292 0.052483279 0.14299995 4013624
0.75635189 0.052522697 0.14399993 4013624
0.75496221 0.052483279 0.14299995 4013624
0.75333685 0.052483279 0.14299995 4013624
0.75171149 0.052483279 0.14299995 3947833
0.74986088 0.052522697 0.14399993 3947831
0.74823809 0.052522697 0.14399993 4013624
0.74661535 0.052522697 0.14399993 4013624
0.74379933 0.054071851 0.14199996 3488304
0.74195921 0.054108653 0.14299995 3751476
0.74012429 0.054145455 0.14399993 3751222
0.73891538 0.05569984 0.14199996 3422257
0.73850155 0.054145455 0.14399993 3751222
0.7372874 0.05569984 0.14199996 3422257
0.73687875 0.054145455 0.14399993 3685429
0.73626584 0.052640945 0.14699996 3817015
0.73565942 0.05569984 0.14199996 3291441
0.73505431 0.054182261 0.14499998 3554613
0.73465091 0.052640945 0.14699996 3686199
0.73383236 0.055734027 0.14299995 3291441
0.73323506 0.05421906 0.14599997 3554613
0.7328369 0.052680358 0.14799994 3686199
0.73220694 0.055734027 0.14299995 3422257
0.73161751 0.05421906 0.14599997 3554613
0.7312246 0.052680358 0.14799994 3686199
0.73058158 0.055734027 0.14299995 3356464
0.73000002 0.05421906 0.14599997 3619636
0.7294184 0.052719772 0.14899993 3817015
0.72895622 0.055734027 0.14299995 3356464
0.72838247 0.05421906 0.14599997 3619636
0.72780871 0.052719772 0.14899993 3817015
0.72751945 0.05569984 0.14199996 3356464
0.72676492 0.05421906 0.14599997 3619638
0.72638768 0.052680358 0.14799994 3817017
0.72589147 0.05569984 0.14199996 3356464
0.72533339 0.054182261 0.14499998 3685431
0.72477537 0.052680358 0.14799994 3817017
0.72426349 0.05569984 0.14199996 3619636
0.72371328 0.054182261 0.14499998 3751222
0.72263551 0.05569984 0.14199996 3685683
0.72209311 0.054182261 0.14499998 3817015
0.72155076 0.052680358 0.14799994 4080187
0.72100753 0.05569984 0.14199996 3685683
0.72047299 0.054182261 0.14499998 3882808
0.7199384 0.052680358 0.14799994 4080187
0.71920395 0.055734027 0.14299995 3817015
0.71867728 0.05421906 0.14599997 3882808
0.71832609 0.052680358 0.14799994 4080187
0.71757859 0.055734027 0.14299995 3817015
0.71705973 0.05421906 0.14599997 3882808
0.71654087 0.052719772 0.14899993 3948601
0.71612358 0.11919134 0.14199996 9800053
0.71595323 0.11749825 0.14299995 11315870
0.71595323 0.11587287 0.14299995 11644835
0.71578288 0.11418761 0.14399993 11579814
0.71595323 0.11262212 0.14299995 11579044
0.71612358 0.1110514 0.14199996 11184286
0.71612358 0.10942341 0.14199996 8879471
0.71595323 0.055734027 0.14299995 3751224
0.71544218 0.05421906 0.14599997 3817017
0.71493119 0.052719772 0.14899993 3948603
0.7144956 0.12081932 0.14199996 9536368
0.71432787 0.11912362 0.14299995 11710632
0.71416014 0.11743313 0.14399993 11777198
0.71416014 0.11581038 0.14399993 11777198
0.71399236 0.11412773 0.14499998 11842991
0.71416014 0.11256485 0.14399993 11711405
0.71416014 0.1109421 0.14399993 11777198
0.71416014 0.10931933 0.14399993 11184288
0.7144956 0.10779543 0.14199996 8420982
0.7144956 0.10616744 0.14199996 8944744
0.71432787 0.055734027 0.14299995 3685431
0.71382463 0.05421906 0.14599997 3817017
0.71332145 0.052719772 0.14899993 4210754
0.71286762 0.12081932 0.14199996 12103328
0.71253735 0.1190559 0.14399993 11777195
0.71237224 0.11736803 0.14499998 11842991
0.71220714 0.11568538 0.14599997 11842991
0.71220714 0.11406785 0.14599997 11908784
0.71220714 0.11245031 0.14599997 11842991
0.71237224 0.11088743 0.14499998 11909038
0.71253735 0.10931933 0.14399993 11842988
0.71253735 0.10769656 0.14399993 10987679
0.71286762 0.10616744 0.14199996 6906197
0.71270245 0.055734027 0.14299995 3619636
0.71220714 0.05421906 0.14599997 3751222
0.71171176 0.052719772 0.14899993 4079168
0.71123958 0.12244731 0.14199996 7034169
0.71107709 0.12074899 0.14299995 12169383
0.71091461 0.1190559 0.14399993 11842988
0.71058959 0.11730291 0.14599997 11908784
0.71058959 0.11568538 0.14599997 11908784
0.71058959 0.11406785 0.14599997 11842991
0.71058959 0.11245031 0.14599997 11908784
0.71058959 0.11083277 0.14599997 11908784
0.71075207 0.10926728 0.14499998 11777195
0.71091461 0.10769656 0.14399993 11908781
0.71107709 0.10612062 0.14299995 6511698
0.71123958 0.05569984 0.14199996 3553073
0.71075207 0.054182261 0.14499998 3619636
0.71010208 0.052719772 0.14899993 3815996
0.70961159 0.12244731 0.14199996 6968376
0.70929182 0.12067866 0.14399993 11973289
0.70913196 0.11898817 0.14499998 11711405
0.70897204 0.11730291 0.14599997 11908784
0.70897204 0.11568538 0.14599997 11908784
0.70897204 0.11406785 0.14599997 11908784
0.70897204 0.11245031 0.14599997 11908784
0.70897204 0.11083277 0.14599997 11908784
0.70913196 0.10926728 0.14499998 11908784
0.70929182 0.10769656 0.14399993 11777198
0.70945174 0.10612062 0.14299995 6248530
0.70961159 0.05569984 0.14199996 3553073
0.70913196 0.054182261 0.14499998 3488050
0.7084924 0.052719772 0.14899993 3618617
0.70798361 0.12244731 0.14199996 6574642
0.70766908 0.12067866 0.14399993 11381150
0.70751178 0.11898817 0.14499998 11711405
0.70735455 0.11730291 0.14599997 11908784
0.70735455 0.11568538 0.14599997 11974577
0.70735455 0.11406785 0.14599997 11908784
0.70735455 0.11245031 0.14599997 11908784
0.70735455 0.11083277 0.14599997 11842991
0.70751178 0.10926728 0.14499998 11777198
0.70766908 0.10769656 0.14399993 9606029
0.70782638 0.10612062 0.14299995 6840152
0.70798361 0.10453945 0.14199996 9601382
0.70798361 0.05569984 0.14199996 3421487
0.70751178 0.054182261 0.14499998 3553073
0.70688272 0.052719772 0.14899993 3750203
0.70635563 0.12244731 0.14199996 8745293
0.70620096 0.12074899 0.14299995 9011311
0.70604634 0.1190559 0.14399993 9737612
0.70589167 0.11736803 0.14499998 11777198
0.70573699 0.11568538 0.14599997 11908784
0.70573699 0.11406785 0.14599997 11908784
0.70573699 0.11245031 0.14599997 11579819
0.70573699 0.11083277 0.14599997 11317417
0.70589167 0.10926728 0.14499998 9407877
0.70604634 0.10769656 0.14399993 9802635
0.70620096 0.10612062 0.14299995 7628121
0.70635563 0.10453945 0.14199996 11245175
0.70635563 0.05569984 0.14199996 3355948
0.70589167 0.054182261 0.14499998 3553075
0.70527297 0.052719772 0.14899993 3750205
0.70472765 0.12081932 0.14199996 7297080
0.7045756 0.11912362 0.14299995 9603194
0.70442355 0.11743313 0.14399993 8749945
0.70442355 0.11581038 0.14399993 9671822
0.70442355 0.11418761 0.14399993 9869201
0.7042715 0.11250758 0.14499998 8751492
0.7042715 0.11088743 0.14499998 8355189
0.70442355 0.10931933 0.14399993 9604741
0.70442355 0.10769656 0.14399993 10657429
0.70472765 0.10616744 0.14199996 8152920
0.70472765 0.10453945 0.14199996 12561285
0.70472765 0.05569984 0.14199996 3421484
0.70442355 0.054145455 0.14399993 3487282
0.70381534 0.052680358 0.14799994 3618619
0.70309967 0.11919134 0.14199996 7363654
0.70309967 0.11756335 0.14199996 10063745
0.70295024 0.11587287 0.14299995 8420465
0.70295024 0.1142475 0.14299995 8091500
0.70280081 0.11256485 0.14399993 7433574
0.70280081 0.1109421 0.14399993 7234910
0.70295024 0.10937137 0.14299995 7496019
0.70309967 0.10779543 0.14199996 7298640
0.70309967 0.10616744 0.14199996 11375728
0.70280081 0.054145455 0.14399993 3553075
0.70220304 0.052680358 0.14799994 3881537
0.70147169 0.11430737 0.14199996 7956043
0.70147169 0.11267939 0.14199996 8415824
0.70147169 0.1110514 0.14199996 8678735
0.70147169 0.10942341 0.14199996 10389603
0.70147169 0.10779543 0.14199996 11639670
0.70117801 0.054145455 0.14399993 3553075
0.70059073 0.052680358 0.14799994 3881537
0.6998437 0.05569984 0.14199996 3289901
0.69941103 0.054182261 0.14499998 3487282
0.69883424 0.052719772 0.14899993 3750205
0.69821572 0.05569984 0.14199996 3289901
0.6976493 0.05421906 0.14599997 3487029
0.69644874 0.055734027 0.14299995 3027501
0.69603175 0.05421906 0.14599997 3356215
0.69547582 0.052759193 0.14999998 3619135
0.69468701 0.055768214 0.14399993 3027501
0.69427788 0.054255866 0.14699996 3356215
0.69373238 0.052798606 0.15099996 3421756
0.69293046 0.055802409 0.14499998 3027501
0.6925292 0.054292664 0.14799994 3290422
0.69199413 0.05283802 0.15199995 3225147
0.69117916 0.055836596 0.14599997 3158064
0.69078577 0.05432947 0.14899993 3290422
0.69026113 0.052877437 0.15299994 3290942
0.69007576 0.057327826 0.14199996 3026731
0.6894331 0.055870786 0.14699996 3157807
0.68904752 0.054366276 0.14999998 3223604
0.68853337 0.052916855 0.15399998 3027770
0.68832183 0.057359401 0.14299995 3091244
0.68769228 0.055904977 0.14799994 3157037
0.68731451 0.054403074 0.15099996 3157041
0.68693674 0.052916855 0.15399998 3027002
0.68657321 0.05739098 0.14399993 3025453
0.68595666 0.055939164 0.14899993 3025453
0.68558675 0.05443988 0.15199995 3091246
0.68534011 0.052916855 0.15399998 3092025
0.68495041 0.05739098 0.14399993 2697258
0.68434697 0.055939164 0.14899993 2763051
0.68398488 0.05443988 0.15199995 2894637
0.68374348 0.052916855 0.15399998 2960439
0.68332767 0.05739098 0.14399993 2302500
0.68273723 0.055939164 0.14899993 2499879
0.68250108 0.054403074 0.15099996 2565672
0.68214685 0.052916855 0.15399998 2631474
0.68170488 0.05739098 0.14399993 2171171
0.68112755 0.055939164 0.14899993 2302500
0.68078119 0.05443988 0.15199995 2499879
0.68055022 0.052916855 0.15399998 2565681
0.67996931 0.057422556 0.14499998 2171169
0.67951787 0.055939164 0.14899993 2171171
0.67917931 0.05443988 0.15199995 2368552
0.67895359 0.052916855 0.15399998 2303279
0.67823887 0.057454132 0.14599997 2039585
0.67779791 0.055973358 0.14999998 2039585
0.67757744 0.05443988 0.15199995 2171173
0.67735696 0.052916855 0.15399998 1974060
0.67662138 0.057454132 0.14599997 1776413
0.67619085 0.055973358 0.14999998 1710620
0.67597562 0.05443988 0.15199995 1710622
0.67576033 0.052916855 0.15399998 1579556
0.67437375 0.05443988 0.15199995 1315864
0.6741637 0.052916855 0.15399998 1053982
0.67256707 0.052916855 0.15399998 856603
0.67097044 0.052916855 0.15399998 987419
