# .PCD v0.7 - Point Cloud Data file format
VERSION 0.7
FIELDS x y z rgb
SIZE 4 4 4 4
TYPE F F F U
COUNT 1 1 1 1
WIDTH 136
HEIGHT 1
VIEWPOINT 0 0 0 1 0 0 0
POINTS 136
DATA ascii
0.73403144 0.12570329 0.14199996 9338989
0.73403144 0.1240753 0.14199996 9075817
0.73403144 0.12244731 0.14199996 9208688
0.73240346 0.12895927 0.14199996 10916478
0.73240346 0.12733127 0.14199996 10393739
0.73220694 0.1256251 0.14299995 11514278
0.73201048 0.12392418 0.14399993 11382692
0.73201048 0.12230141 0.14399993 11316897
0.73201048 0.12067866 0.14399993 11448485
0.73240346 0.11919134 0.14199996 10919570
0.73077548 0.13058725 0.14199996 9995624
0.73058158 0.12887587 0.14299995 11246990
0.73038775 0.1271697 0.14399993 11514019
0.73019385 0.12546876 0.14499998 11383464
0.73019385 0.12384861 0.14499998 11449257
0.73000002 0.12215552 0.14599997 11580841
0.73000002 0.12053798 0.14599997 11317669
0.73038775 0.1190559 0.14399993 11579044
0.73038775 0.11743313 0.14399993 8682346
0.73077548 0.11593537 0.14199996 8748139
0.72914743 0.13221523 0.14199996 11179382
0.72914743 0.13058725 0.14199996 9535850
0.72876495 0.12879246 0.14399993 11775908
0.72857368 0.1270889 0.14499998 11580071
0.72838247 0.12539059 0.14599997 11777450
0.72838247 0.12377305 0.14599997 11777450
0.72838247 0.12215552 0.14599997 11646636
0.72838247 0.12053798 0.14599997 11646636
0.72838247 0.11892045 0.14599997 11449255
0.72857368 0.11736803 0.14499998 10985876
0.72876495 0.11581038 0.14399993 8814707
0.72914743 0.11430737 0.14199996 10127728
0.72751945 0.13221523 0.14199996 10916978
0.72733086 0.13050124 0.14299995 8746852
0.72714221 0.12879246 0.14399993 11710630
0.72676492 0.12700813 0.14599997 11711657
0.72676492 0.12539059 0.14599997 11777450
0.72657633 0.12369749 0.14699996 11777450
0.72657633 0.12208256 0.14699996 11777452
0.72657633 0.12046765 0.14699996 11777452
0.72657633 0.11885273 0.14699996 11711659
0.72676492 0.11730291 0.14599997 11776423
0.72695357 0.11574788 0.14499998 7960429
0.72714221 0.11418761 0.14399993 8548957
0.72751945 0.11267939 0.14199996 10981990
0.72589147 0.13384323 0.14199996 10983285
0.72589147 0.13221523 0.14199996 10127976
0.72551942 0.13041523 0.14399993 8352609
0.72551942 0.12879246 0.14399993 11776425
0.72514737 0.12700813 0.14599997 11777452
0.7249614 0.12531242 0.14699996 11777452
0.7249614 0.12369749 0.14699996 11777452
0.7249614 0.12208256 0.14699996 11843245
0.7249614 0.12046765 0.14699996 11843245
0.7249614 0.11885273 0.14699996 11777452
0.72514737 0.11730291 0.14599997 11908779
0.72533339 0.11574788 0.14499998 8224371
0.72551942 0.11418761 0.14399993 6707786
0.72589147 0.11267939 0.14199996 9666393
0.72426349 0.13384323 0.14199996 11114611
0.72426349 0.13221523 0.14199996 10588267
0.72389668 0.13041523 0.14399993 8879203
0.72389668 0.12879246 0.14399993 11908009
0.72352988 0.12700813 0.14599997 11645609
0.72334647 0.12531242 0.14699996 11843245
0.72334647 0.12369749 0.14699996 11843245
0.72334647 0.12208256 0.14699996 11843245
0.72334647 0.12046765 0.14699996 11843245
0.72334647 0.11885273 0.14699996 11711659
0.72352988 0.11730291 0.14599997 10065805
0.72371328 0.11574788 0.14499998 8026222
0.72389668 0.11418761 0.14399993 7167820
0.72408009 0.11262212 0.14299995 12100734
0.72263551 0.13221523 0.14199996 11310705
0.72245473 0.13050124 0.14299995 7892049
0.72227395 0.12879246 0.14399993 10920599
0.72191232 0.12700813 0.14599997 11777195
0.72191232 0.12539059 0.14599997 11842988
0.72173154 0.12369749 0.14699996 11842988
0.72173154 0.12208256 0.14699996 11843245
0.72173154 0.12046765 0.14699996 11777452
0.72191232 0.11892045 0.14599997 11579816
0.72191232 0.11730291 0.14599997 9802118
0.72209311 0.11574788 0.14499998 8552051
0.72227395 0.11418761 0.14399993 7364170
0.72263551 0.11267939 0.14199996 8876362
0.72100753 0.13221523 0.14199996 11375728
0.72082937 0.13050124 0.14299995 8153154
0.72065115 0.12879246 0.14399993 8549475
0.72047299 0.1270889 0.14499998 8485490
0.72029477 0.12539059 0.14599997 11118495
0.72029477 0.12377305 0.14599997 11447460
0.72011662 0.12208256 0.14699996 11119265
0.72029477 0.12053798 0.14599997 9671819
0.72029477 0.11892045 0.14599997 10131596
0.72029477 0.11730291 0.14599997 9931893
0.72065115 0.11581038 0.14399993 6576450
0.72082937 0.1142475 0.14299995 9270354
0.72100753 0.11267939 0.14199996 12362873
0.71937954 0.13058725 0.14199996 10258528
0.71902841 0.12879246 0.14399993 8548696
0.71902841 0.1271697 0.14399993 9142907
0.71885282 0.12546876 0.14499998 8749434
0.71867728 0.12377305 0.14599997 8947326
0.71867728 0.12215552 0.14599997 9342084
0.71867728 0.12053798 0.14599997 9144190
0.71885282 0.11898817 0.14499998 8156264
0.71902841 0.11743313 0.14399993 7034943
0.71902841 0.11581038 0.14399993 7232322
0.71920395 0.1142475 0.14299995 10849123
0.71937954 0.11267939 0.14199996 10258269
0.71775156 0.13058725 0.14199996 11770486
0.71775156 0.12895927 0.14199996 8877129
0.71740562 0.1271697 0.14399993 8217930
0.71740562 0.12554693 0.14399993 7691849
0.71740562 0.12392418 0.14399993 8020814
0.71740562 0.12230141 0.14399993 7166789
0.71740562 0.12067866 0.14399993 7166791
0.71740562 0.1190559 0.14399993 7231552
0.71740562 0.11743313 0.14399993 9468501
0.71757859 0.11587287 0.14299995 10652775
0.71775156 0.11430737 0.14199996 12561022
0.71612358 0.12895927 0.14199996 12362621
0.71612358 0.12733127 0.14199996 11376498
0.71595323 0.1256251 0.14299995 9139538
0.71595323 0.12399974 0.14299995 8876366
0.71595323 0.12237436 0.14299995 8876877
0.71595323 0.12074899 0.14299995 7955525
0.71612358 0.11919134 0.14199996 8809803
0.71612358 0.11756335 0.14199996 11113324
0.71612358 0.11593537 0.14199996 12626563
0.7144956 0.12570329 0.14199996 9863772
0.7144956 0.1240753 0.14199996 10719081
0.7144956 0.12244731 0.14199996 10653286
0.7144956 0.12081932 0.14199996 11310703
0.7144956 0.11919134 0.14199996 11573105
