# .PCD v0.7 - Point Cloud Data file format
VERSION 0.7
FIELDS x y z rgb
SIZE 4 4 4 4
TYPE F F F U
COUNT 1 1 1 1
WIDTH 118
HEIGHT 1
VIEWPOINT 0 0 0 1 0 0 0
POINTS 118
DATA ascii
0.71123958 0.11919134 0.14199996 9864292
0.71123958 0.11756335 0.14199996 8483934
0.71123958 0.11593537 0.14199996 8747106
0.70961159 0.12244731 0.14199996 10389605
0.70929182 0.12067866 0.14399993 9930349
0.70929182 0.1190559 0.14399993 10985876
0.70929182 0.11743313 0.14399993 11316642
0.70929182 0.11581038 0.14399993 11316642
0.70929182 0.11418761 0.14399993 11251108
0.70961159 0.11267939 0.14199996 11316901
0.70798361 0.12244731 0.14199996 8612940
0.70766908 0.12067866 0.14399993 11181197
0.70751178 0.11898817 0.14499998 11250077
0.70735455 0.11730291 0.14599997 11448228
0.70735455 0.11568538 0.14599997 11382694
0.70735455 0.11406785 0.14599997 11382694
0.70751178 0.11250758 0.14499998 11382694
0.70766908 0.1109421 0.14399993 11316644
0.70798361 0.10942341 0.14199996 8484975
0.70604634 0.12230141 0.14399993 8415824
0.70604634 0.12067866 0.14399993 11775138
0.70573699 0.11892045 0.14599997 11448228
0.70573699 0.11730291 0.14599997 11579816
0.70558232 0.11562288 0.14699996 11514026
0.70573699 0.11406785 0.14599997 11514026
0.70573699 0.11245031 0.14599997 11514280
0.70573699 0.11083277 0.14599997 11448487
0.70604634 0.10931933 0.14399993 11973804
0.70620096 0.107746 0.14299995 7039329
0.70635563 0.10616744 0.14199996 7167824
0.70472765 0.1240753 0.14199996 9140579
0.70442355 0.12230141 0.14399993 7693133
0.70442355 0.12067866 0.14399993 11447460
0.70411944 0.11892045 0.14599997 11579816
0.70411944 0.11730291 0.14599997 11579562
0.70396739 0.11562288 0.14699996 11579562
0.70396739 0.11400796 0.14699996 11579562
0.70396739 0.11239304 0.14699996 11514026
0.70411944 0.11083277 0.14599997 11514280
0.7042715 0.10926728 0.14499998 11908011
0.70442355 0.10769656 0.14399993 7565673
0.70472765 0.10616744 0.14199996 6246981
0.70309967 0.1240753 0.14199996 9535337
0.70280081 0.12230141 0.14399993 7890512
0.70280081 0.12067866 0.14399993 11447206
0.70250189 0.11892045 0.14599997 11579816
0.70250189 0.11730291 0.14599997 11579562
0.70235246 0.11562288 0.14699996 11645355
0.70235246 0.11400796 0.14699996 11579562
0.70235246 0.11239304 0.14699996 11514026
0.70250189 0.11083277 0.14599997 11448233
0.70265138 0.10926728 0.14499998 11908781
0.70280081 0.10769656 0.14399993 7566443
0.70309967 0.10616744 0.14199996 6116167
0.70147169 0.1240753 0.14199996 9601130
0.70132488 0.12237436 0.14299995 9403751
0.70117801 0.12067866 0.14399993 11512738
0.70117801 0.1190559 0.14399993 11447976
0.7008844 0.11730291 0.14599997 11579562
0.7008844 0.11568538 0.14599997 11645355
0.7008844 0.11406785 0.14599997 11645355
0.7008844 0.11245031 0.14599997 11514026
0.7008844 0.11083277 0.14599997 11448233
0.70103121 0.10926728 0.14499998 8223603
0.70117801 0.10769656 0.14399993 7368294
0.70147169 0.10616744 0.14199996 6708302
0.6998437 0.12244731 0.14199996 9600868
0.69969946 0.12074899 0.14299995 9406590
0.69955528 0.1190559 0.14399993 11513769
0.69955528 0.11743313 0.14399993 11579562
0.69941103 0.11574788 0.14499998 11579819
0.69926685 0.11406785 0.14599997 11579819
0.69926685 0.11245031 0.14599997 11514026
0.69941103 0.11088743 0.14499998 11514026
0.69955528 0.10931933 0.14399993 8223349
0.69955528 0.10769656 0.14399993 7365716
0.6998437 0.10616744 0.14199996 6905165
0.69821572 0.12081932 0.14199996 9337446
0.69821572 0.11919134 0.14199996 9076600
0.69793248 0.11743313 0.14399993 9539463
0.69793248 0.11581038 0.14399993 10329752
0.69779092 0.11412773 0.14499998 10395545
0.69779092 0.11250758 0.14499998 9013892
0.69779092 0.11088743 0.14499998 8222836
0.69793248 0.10931933 0.14399993 7826533
0.69793248 0.10769656 0.14399993 7494722
0.6980741 0.10612062 0.14299995 9007961
0.69658768 0.11919134 0.14199996 7625027
0.69644874 0.11749825 0.14299995 8879733
0.69630975 0.11581038 0.14399993 7630951
0.69630975 0.11418761 0.14399993 7630951
0.69630975 0.11256485 0.14399993 7038814
0.69630975 0.1109421 0.14399993 6905433
0.69630975 0.10931933 0.14399993 6837576
0.69630975 0.10769656 0.14399993 9138255
0.69644874 0.10612062 0.14299995 11046252
0.69658768 0.10453945 0.14199996 8545598
0.69495976 0.11756335 0.14199996 8085063
0.69482338 0.11587287 0.14299995 7494211
0.69468701 0.11418761 0.14399993 7165246
0.69468701 0.11256485 0.14399993 7363138
0.69468701 0.1109421 0.14399993 7691588
0.69468701 0.10931933 0.14399993 9730390
0.69468701 0.10769656 0.14399993 11703662
0.69482338 0.10612062 0.14299995 9466700
0.69333172 0.11593537 0.14199996 10125146
0.69319797 0.1142475 0.14299995 9598802
0.69306421 0.11256485 0.14399993 9665108
0.69306421 0.1109421 0.14399993 9731671
0.69306421 0.10931933 0.14399993 9664595
0.69319797 0.107746 0.14299995 7821623
0.69333172 0.10616744 0.14199996 7624244
0.69170374 0.11593537 0.14199996 10454111
0.69170374 0.11430737 0.14199996 10454111
0.69157261 0.11262212 0.14299995 9467216
0.69157261 0.11099675 0.14299995 8744006
0.69170374 0.10942341 0.14199996 7296051
0.69170374 0.10779543 0.14199996 7624246
