# .PCD v0.7 - Point Cloud Data file format
VERSION 0.7
FIELDS x y z rgb
SIZE 4 4 4 4
TYPE F F F U
COUNT 1 1 1 1
WIDTH 1119
HEIGHT 1
VIEWPOINT 0 0 0 1 0 0 0
POINTS 1119
DATA ascii
0.80729777 -0.063190661 0.17599994 2960681
0.80729777 -0.064729802 0.17599994 3026474
0.80696279 -0.066025697 0.17699999 3026474
0.80696279 -0.06756223 0.17699999 3092267
0.80696279 -0.069098748 0.17699999 3158317
0.80696279 -0.070635296 0.17699999 3158064
0.80662781 -0.071918122 0.17799997 3158064
0.80662781 -0.073452018 0.17799997 3092271
0.80662781 -0.074985944 0.17799997 3026478
0.80629283 -0.076258324 0.17899996 2960685
0.80629283 -0.077789627 0.17899996 3157037
0.80595791 -0.079054169 0.17999995 4933186
0.80642331 0.028995305 0.17399997 2958880
0.80642331 0.027450942 0.17399997 2631716
0.80642331 0.025906574 0.17399997 2565670
0.80642331 0.024362206 0.17399997 2565670
0.80642331 0.022817843 0.17399997 2565670
0.80675566 0.021179184 0.17299998 2500387
0.80675566 0.019632202 0.17299998 2566180
0.80675566 0.018085223 0.17299998 2566180
0.80675566 0.016538244 0.17299998 2500387
0.80708802 0.014886513 0.17199993 2500387
0.80708802 0.013336919 0.17199993 2500387
0.80708802 0.011787325 0.17199993 2566180
0.80708802 0.010237731 0.17199993 2434594
0.80708802 0.0086881444 0.17199993 2500387
0.80675566 0.0072563663 0.17299998 2566180
0.80675566 0.0057093874 0.17299998 2500387
0.80675566 0.0041624084 0.17299998 2434594
0.80675566 0.0026154295 0.17299998 2434594
0.80642331 0.0011967048 0.17399997 2434594
0.80642331 -0.00034765899 0.17399997 2566180
0.80642331 -0.0018920302 0.17399997 2500387
0.80642331 -0.003436394 0.17399997 2434594
0.80609095 -0.0048420504 0.17499995 2434594
0.80609095 -0.006383799 0.17499995 2500387
0.80609095 -0.0079255551 0.17499995 2369571
0.80609095 -0.0094673112 0.17499995 2435364
0.8057586 -0.010859899 0.17599994 2566178
0.8057586 -0.01239904 0.17599994 2566178
0.8057586 -0.013938181 0.17599994 2631971
0.8057586 -0.015477322 0.17599994 2631971
0.8057586 -0.017016463 0.17599994 2566178
0.8057586 -0.018555596 0.17599994 2566178
0.8057586 -0.020094737 0.17599994 2631971
0.8057586 -0.021633878 0.17599994 2500385
0.80609095 -0.023343086 0.17499995 2566178
0.80609095 -0.024884842 0.17499995 2697764
0.80609095 -0.026426591 0.17499995 2631971
0.80609095 -0.027968347 0.17499995 2434594
0.80609095 -0.029510103 0.17499995 2566180
0.80609095 -0.031051859 0.17499995 2631973
0.80609095 -0.032593608 0.17499995 2697766
0.80609095 -0.034135364 0.17499995 2697766
0.80609095 -0.03567712 0.17499995 2829352
0.8057586 -0.03702528 0.17599994 2829350
0.8057586 -0.038564421 0.17599994 2697764
0.8057586 -0.040103562 0.17599994 2698534
0.80542624 -0.041441262 0.17699999 2566948
0.80509388 -0.042773753 0.17799997 2895143
0.80509388 -0.044307664 0.17799997 2895143
0.80509388 -0.045841582 0.17799997 3026729
0.80509388 -0.047375493 0.17799997 2960936
0.80509388 -0.048909403 0.17799997 2763300
0.80476153 -0.050226219 0.17899996 2697507
0.80476153 -0.051757522 0.17899996 2763300
0.80476153 -0.05328881 0.17899996 2960679
0.80509388 -0.055045061 0.17799997 3092265
0.80509388 -0.056578971 0.17799997 3026472
0.80509388 -0.058112882 0.17799997 2960679
0.80509388 -0.059646808 0.17799997 2960679
0.80509388 -0.061180718 0.17799997 2697764
0.80509388 -0.062714629 0.17799997 2697766
0.80509388 -0.06424854 0.17799997 2960938
0.80509388 -0.065782465 0.17799997 2960938
0.80509388 -0.067316376 0.17799997 3026731
0.80509388 -0.068850286 0.17799997 3158317
0.80509388 -0.070384212 0.17799997 3027501
0.80509388 -0.071918122 0.17799997 3027501
0.80476153 -0.073195718 0.17899996 3027501
0.80476153 -0.074727036 0.17899996 2895662
0.80476153 -0.076258324 0.17899996 2829869
0.80476153 -0.077789627 0.17899996 2960428
0.80476153 -0.07932093 0.17899996 4670014
0.80454922 0.029076532 0.17499995 3024673
0.80454922 0.027534779 0.17499995 2565923
0.80454922 0.025993027 0.17499995 2565670
0.80454922 0.024451274 0.17499995 2499877
0.80454922 0.022909518 0.17499995 2565670
0.80454922 0.021367766 0.17499995 2500134
0.80487895 0.019729108 0.17399997 2435364
0.80487895 0.01818474 0.17399997 2435364
0.80487895 0.016640373 0.17399997 2369571
0.80487895 0.015096005 0.17399997 2369571
0.80487895 0.013551638 0.17399997 2369571
0.80487895 0.012007274 0.17399997 2500387
0.80487895 0.010462902 0.17399997 2434594
0.80487895 0.0089185387 0.17399997 2500387
0.80487895 0.0073741749 0.17399997 2500387
0.80487895 0.0058298111 0.17399997 2434594
0.80487895 0.0042854398 0.17399997 2368801
0.80487895 0.0027410761 0.17399997 2434594
0.80487895 0.0011967048 0.17399997 2434594
0.80487895 -0.00034765899 0.17399997 2566180
0.80454922 -0.0017585382 0.17499995 2500387
0.80454922 -0.0033002943 0.17499995 2500387
0.80454922 -0.0048420504 0.17499995 2434594
0.80454922 -0.006383799 0.17499995 2500387
0.80421948 -0.0077816173 0.17599994 2369571
0.80421948 -0.0093207583 0.17599994 2369571
0.80421948 -0.010859899 0.17599994 2566180
0.80421948 -0.01239904 0.17599994 2631971
0.80388975 -0.013783775 0.17699999 2631971
0.80388975 -0.015320309 0.17699999 2566178
0.80388975 -0.016856834 0.17699999 2566178
0.80388975 -0.018393353 0.17699999 2566178
0.80388975 -0.019929878 0.17699999 2566178
0.80421948 -0.021633878 0.17599994 2500385
0.80421948 -0.023173019 0.17599994 2566178
0.80388975 -0.024539463 0.17699999 2631971
0.80421948 -0.026251294 0.17599994 2697764
0.80421948 -0.027790435 0.17599994 2434592
0.80421948 -0.029329576 0.17599994 2500385
0.80421948 -0.030868717 0.17599994 2631971
0.80421948 -0.032407857 0.17599994 2697764
0.80388975 -0.033758625 0.17699999 2829350
0.80355996 -0.035104178 0.17799997 2697764
0.80355996 -0.036638096 0.17799997 2697764
0.80355996 -0.038172007 0.17799997 2697764
0.80355996 -0.039705925 0.17799997 2698534
0.80323023 -0.041038409 0.17899996 2566948
0.80323023 -0.042569712 0.17899996 2829350
0.80323023 -0.044101015 0.17899996 2829350
0.80323023 -0.04563231 0.17899996 3026729
0.80290049 -0.046951734 0.17999995 2960936
0.80290049 -0.048480429 0.17999995 2697764
0.80290049 -0.050009109 0.17999995 2697507
0.80290049 -0.051537804 0.17999995 2697507
0.80323023 -0.05328881 0.17899996 2894886
0.80323023 -0.054820113 0.17899996 3026472
0.80323023 -0.056351416 0.17899996 3026472
0.80323023 -0.057882719 0.17899996 2960679
0.80323023 -0.059414022 0.17899996 2829350
0.80323023 -0.060945325 0.17899996 2697766
0.80323023 -0.062476613 0.17899996 2631973
0.80323023 -0.064007916 0.17899996 2895145
0.80323023 -0.065539218 0.17899996 2895145
0.80323023 -0.067070521 0.17899996 3026731
0.80323023 -0.068601824 0.17899996 2960938
0.80323023 -0.070133142 0.17899996 2961708
0.80323023 -0.07166443 0.17899996 2961455
0.80323023 -0.073195718 0.17899996 2961455
0.80323023 -0.074727036 0.17899996 2764076
0.80323023 -0.076258324 0.17899996 2829869
0.80323023 -0.077789627 0.17899996 2960428
0.80268031 0.029157754 0.17599994 2958626
0.80268031 0.027618621 0.17599994 2565923
0.80268031 0.02607948 0.17599994 2565670
0.80268031 0.024540339 0.17599994 2434341
0.80268031 0.023001198 0.17599994 2500134
0.80268031 0.021462057 0.17599994 2500134
0.80268031 0.019922916 0.17599994 2501157
0.80300748 0.018284258 0.17499995 2369571
0.80300748 0.016742501 0.17499995 2369571
0.80300748 0.015200749 0.17499995 2369571
0.80300748 0.013658993 0.17499995 2500387
0.80300748 0.012117244 0.17499995 2303778
0.80300748 0.010575488 0.17499995 2500387
0.80300748 0.0090337396 0.17499995 2434594
0.80300748 0.0074919835 0.17499995 2434594
0.80300748 0.0059502274 0.17499995 2434594
0.80300748 0.0044084787 0.17499995 2368801
0.80300748 0.0028667226 0.17499995 2434594
0.80300748 0.0013249665 0.17499995 2434594
0.80268031 -8.5912645e-05 0.17599994 2500387
0.80268031 -0.0016250536 0.17599994 2368801
0.80268031 -0.0031641945 0.17599994 2434594
0.80268031 -0.0047033355 0.17599994 2368801
0.80268031 -0.0062424764 0.17599994 2434594
0.8023532 -0.0076376647 0.17699999 2500387
0.80202603 -0.009027645 0.17799997 2434594
0.80202603 -0.010561556 0.17799997 2434594
0.80202603 -0.012095474 0.17799997 2500387
0.80202603 -0.013629384 0.17799997 2566180
0.80169892 -0.015006296 0.17899996 2500387
0.80169892 -0.016537599 0.17899996 2500387
0.80169892 -0.018068887 0.17899996 2566178
0.80169892 -0.01960019 0.17899996 2631971
0.80169892 -0.021131493 0.17899996 2566178
0.80169892 -0.022662796 0.17899996 2500385
0.80169892 -0.024194092 0.17899996 2566178
0.80169892 -0.025725394 0.17899996 2631971
0.80169892 -0.027256697 0.17899996 2500385
0.80169892 -0.028788 0.17899996 2500385
0.80169892 -0.030319303 0.17899996 2566178
0.80169892 -0.031850599 0.17899996 2631971
0.80169892 -0.033381902 0.17899996 2697764
0.80169892 -0.034913205 0.17899996 2697764
0.80169892 -0.036444508 0.17899996 2697764
0.80169892 -0.037975803 0.17899996 2697764
0.80137181 -0.039308295 0.17999995 2697766
0.80137181 -0.040836982 0.17999995 2697766
0.80137181 -0.04236567 0.17999995 2697766
0.80137181 -0.043894358 0.17999995 2829352
0.8010447 -0.045213781 0.18099993 2960938
0.8010447 -0.046739854 0.18099993 2960938
0.8010447 -0.048265927 0.18099993 2829350
0.8010447 -0.049791999 0.18099993 2566178
0.8010447 -0.051318072 0.18099993 2631971
0.8010447 -0.052844144 0.18099993 2829350
0.8010447 -0.054370217 0.18099993 2895143
0.80137181 -0.05612386 0.17999995 2960936
0.80137181 -0.057652541 0.17999995 2960936
0.80137181 -0.059181236 0.17999995 2829350
0.80137181 -0.060709916 0.17999995 2631973
0.80137181 -0.062238611 0.17999995 2631973
0.80137181 -0.063767292 0.17999995 2829352
0.80137181 -0.065295987 0.17999995 2895145
0.80137181 -0.066824667 0.17999995 3026731
0.80137181 -0.068353362 0.17999995 2960938
0.80137181 -0.069882058 0.17999995 2895915
0.80137181 -0.071410738 0.17999995 2895662
0.80137181 -0.072939418 0.17999995 2895662
0.80137181 -0.074468113 0.17999995 2829869
0.80137181 -0.075996794 0.17999995 2895662
0.8010447 -0.077261351 0.18099993 3092014
0.80049217 0.02932021 0.17799997 2893605
0.80049217 0.0277863 0.17799997 2499877
0.80049217 0.026252385 0.17799997 2499877
0.80049217 0.024718471 0.17799997 2368548
0.80049217 0.023184557 0.17799997 2434341
0.80049217 0.021650642 0.17799997 2500134
0.80081666 0.020019826 0.17699999 2631973
0.80081666 0.018483296 0.17699999 2369571
0.80081666 0.01694677 0.17699999 2303778
0.80081666 0.015410241 0.17699999 2369571
0.80081666 0.013873711 0.17699999 2434594
0.80081666 0.012337185 0.17699999 2303778
0.8011412 0.010688066 0.17599994 2369571
0.8011412 0.009148933 0.17599994 2303778
0.8011412 0.0076097921 0.17599994 2237215
0.80081666 0.0061910823 0.17699999 2368801
0.80081666 0.0046545565 0.17699999 2237215
0.80081666 0.0031180233 0.17699999 2434594
0.80081666 0.0015814975 0.17699999 2434594
0.80081666 4.4971704e-05 0.17699999 2434594
0.80049217 -0.0013580695 0.17799997 2434594
0.80049217 -0.0028919876 0.17799997 2434594
0.80049217 -0.0044258982 0.17799997 2368801
0.80049217 -0.0059598163 0.17799997 2434594
0.80049217 -0.0074937269 0.17799997 2500387
0.80016762 -0.0088810921 0.17899996 2434594
0.80016762 -0.010412388 0.17899996 2368801
0.80016762 -0.01194369 0.17899996 2500387
0.79984313 -0.013320602 0.17999995 2566180
0.79984313 -0.01484929 0.17999995 2500387
0.79984313 -0.016377978 0.17999995 2566180
0.79984313 -0.017906658 0.17999995 2566180
0.79984313 -0.019435346 0.17999995 2631973
0.79984313 -0.020964034 0.17999995 2566180
0.79984313 -0.022492722 0.17999995 2500385
0.79984313 -0.024021409 0.17999995 2566178
0.79984313 -0.025550097 0.17999995 2631971
0.79984313 -0.027078785 0.17999995 2500385
0.79984313 -0.028607473 0.17999995 2500385
0.79984313 -0.030136161 0.17999995 2566178
0.79984313 -0.031664848 0.17999995 2631971
0.79951859 -0.033005178 0.18099993 2697764
0.79951859 -0.034531251 0.18099993 2697764
0.79951859 -0.036057331 0.18099993 2697764
0.79951859 -0.037583403 0.18099993 2697764
0.7991941 -0.03891065 0.18199998 2697766
0.7991941 -0.040434115 0.18199998 2829352
0.7991941 -0.041957572 0.18199998 2829352
0.7991941 -0.043481037 0.18199998 2829352
0.7991941 -0.045004502 0.18199998 2960938
0.79886955 -0.04631608 0.18299997 3026731
0.79886955 -0.04783693 0.18299997 2895145
0.79886955 -0.049357779 0.18299997 2697766
0.79886955 -0.050878622 0.18299997 2697766
0.7991941 -0.052621804 0.18199998 2829352
0.7991941 -0.054145254 0.18199998 2830122
0.7991941 -0.055668719 0.18199998 2895913
0.7991941 -0.057192184 0.18199998 2830120
0.7991941 -0.058715649 0.18199998 2764327
0.7991941 -0.060239114 0.18199998 2698536
0.7991941 -0.061762564 0.18199998 2698536
0.7991941 -0.063286029 0.18199998 2698536
0.7991941 -0.064809494 0.18199998 3159087
0.79951859 -0.066578828 0.18099993 3027501
0.7991941 -0.067856424 0.18199998 3027501
0.7991941 -0.069379888 0.18199998 2961708
0.7991941 -0.070903338 0.18199998 3027248
0.7991941 -0.072426789 0.18199998 2961455
0.7991941 -0.073950268 0.18199998 2830639
0.7991941 -0.075473718 0.18199998 3028018
0.7991941 -0.076997183 0.18199998 3356213
0.79863632 0.029401436 0.17899996 2959398
0.79863632 0.027870137 0.17899996 2499877
0.79863632 0.026338838 0.17899996 2499877
0.79863632 0.024807535 0.17899996 2434084
0.79863632 0.023276236 0.17899996 2434084
0.79863632 0.021744933 0.17899996 2434341
0.79863632 0.02021363 0.17899996 2500904
0.79863632 0.018682331 0.17899996 2435364
0.79863632 0.017151028 0.17899996 2303778
0.79863632 0.015619729 0.17899996 2369571
0.79863632 0.01408843 0.17899996 2434594
0.79863632 0.012557127 0.17899996 2303778
0.79895824 0.010913238 0.17799997 2369571
0.79895824 0.0093793347 0.17799997 2369571
0.79895824 0.0078454167 0.17799997 2237215
0.79895824 0.0063114986 0.17799997 2368801
0.79895824 0.004777588 0.17799997 2237215
0.79863632 0.0033693239 0.17899996 2368801
0.79863632 0.001838021 0.17899996 2434594
0.79863632 0.00030671805 0.17899996 2434594
0.79863632 -0.0012245849 0.17899996 2434594
0.79863632 -0.0027558804 0.17899996 2500387
0.79831445 -0.0041484684 0.17999995 2434594
0.79831445 -0.0056771636 0.17999995 2434594
0.79831445 -0.0072058514 0.17999995 2500387
0.79799253 -0.0085879862 0.18099993 2500387
0.79799253 -0.010114059 0.18099993 2434594
0.7976706 -0.011488348 0.18199998 2500387
0.7976706 -0.013011806 0.18199998 2566180
0.7976706 -0.014535271 0.18199998 2566180
0.7976706 -0.016058728 0.18199998 2566180
0.7976706 -0.017582186 0.18199998 2566180
0.7976706 -0.019105643 0.18199998 2566180
0.7976706 -0.020629108 0.18199998 2697766
0.7976706 -0.022152573 0.18199998 2566178
0.79734874 -0.023503348 0.18299997 2631971
0.79734874 -0.025024198 0.18299997 2631971
0.79734874 -0.026545048 0.18299997 2631971
0.79734874 -0.028065898 0.18299997 2566178
0.79734874 -0.02958674 0.18299997 2631971
0.79734874 -0.03110759 0.18299997 2697764
0.79734874 -0.032628439 0.18299997 2895143
0.79734874 -0.034149289 0.18299997 2895143
0.79734874 -0.035670139 0.18299997 2960936
0.79734874 -0.037190989 0.18299997 2829350
0.79734874 -0.038711838 0.18299997 2960938
0.79734874 -0.040232688 0.18299997 3026731
0.79702681 -0.041549489 0.18399996 2895145
0.79702681 -0.043067731 0.18399996 2960938
0.79702681 -0.044585966 0.18399996 3026731
0.79702681 -0.0461042 0.18399996 3158317
0.79702681 -0.047622435 0.18399996 3289903
0.79702681 -0.049140669 0.18399996 3092524
0.79702681 -0.050658904 0.18399996 2960938
0.79702681 -0.052177139 0.18399996 2764329
0.79702681 -0.053695373 0.18399996 2895915
0.79702681 -0.055213608 0.18399996 2895915
0.79702681 -0.056731842 0.18399996 2830122
0.79734874 -0.058482863 0.18299997 2830122
0.79734874 -0.060003705 0.18299997 2830122
0.79734874 -0.061524563 0.18299997 2764329
0.79734874 -0.063045405 0.18299997 2830122
0.79734874 -0.064566262 0.18299997 3027501
0.79734874 -0.066087104 0.18299997 3027501
0.79734874 -0.067607947 0.18299997 2961708
0.79734874 -0.069128804 0.18299997 3027501
0.79734874 -0.070649646 0.18299997 3159087
0.79734874 -0.072170489 0.18299997 3094064
0.79734874 -0.073691346 0.18299997 3094064
0.79734874 -0.075212188 0.18299997 3225397
0.79734874 -0.076733045 0.18299997 3487799
0.79678571 0.029482663 0.17999995 3025704
0.79678571 0.027953979 0.17999995 2565672
0.79646647 0.02651174 0.18099993 2499877
0.79646647 0.024985664 0.18099993 2368548
0.79614717 0.023551274 0.18199998 2368548
0.79646647 0.021933515 0.18099993 2434341
0.79646647 0.020407438 0.18099993 2500904
0.79646647 0.018881366 0.18099993 2369318
0.79646647 0.017355289 0.18099993 2303778
0.79646647 0.015829213 0.18099993 2369571
0.79646647 0.01430314 0.18099993 2435364
0.79646647 0.01277706 0.18099993 2369571
0.79678571 0.011138409 0.17999995 2435362
0.79678571 0.0096097216 0.17999995 2500385
0.79678571 0.0080810338 0.17999995 2434592
0.79678571 0.0065523461 0.17999995 2434592
0.79678571 0.0050236583 0.17999995 2434335
0.79646647 0.0036206171 0.18099993 2434337
0.79646647 0.0020945445 0.18099993 2237215
0.79646647 0.0005684644 0.18099993 2368801
0.79646647 -0.00095760822 0.18099993 2434594
0.79614717 -0.0023475736 0.18199998 2500385
0.79614717 -0.0038710386 0.18199998 2434592
0.79614717 -0.005394496 0.18199998 2566178
0.79582787 -0.0067740232 0.18299997 2500385
0.79582787 -0.0082948729 0.18299997 2500385
0.79582787 -0.0098157153 0.18299997 2500385
0.79582787 -0.011336565 0.18299997 2500385
0.79550856 -0.012703024 0.18399996 2500385
0.79550856 -0.014221258 0.18399996 2500385
0.79550856 -0.015739493 0.18399996 2566178
0.79550856 -0.01725772 0.18399996 2566178
0.79550856 -0.018775955 0.18399996 2631973
0.79550856 -0.020294189 0.18399996 2697766
0.79550856 -0.021812432 0.18399996 2631973
0.79518926 -0.023157984 0.18499994 2631973
0.79518926 -0.024673603 0.18499994 2631973
0.79518926 -0.026189223 0.18499994 2631973
0.79518926 -0.02770485 0.18499994 2566180
0.79518926 -0.029220469 0.18499994 2631971
0.79518926 -0.030736096 0.18499994 2697764
0.79518926 -0.032251716 0.18499994 2829350
0.79518926 -0.033767335 0.18499994 2895143
0.79518926 -0.035282962 0.18499994 2960936
0.79518926 -0.036798581 0.18499994 2829350
0.79518926 -0.038314208 0.18499994 2960936
0.79518926 -0.039829828 0.18499994 3026729
0.79518926 -0.041345447 0.18499994 2895143
0.79518926 -0.042861074 0.18499994 2960936
0.79487002 -0.044167429 0.18599993 3026731
0.79487002 -0.045680441 0.18599993 3289903
0.79487002 -0.047193445 0.18599993 3289903
0.79487002 -0.04870645 0.18599993 3158317
0.79487002 -0.050219469 0.18599993 3092524
0.79487002 -0.051732473 0.18599993 3026731
0.79518926 -0.053470425 0.18499994 2961708
0.79518926 -0.054986052 0.18499994 2895915
0.79518926 -0.056501664 0.18499994 2830122
0.79518926 -0.058017291 0.18499994 2764329
0.79518926 -0.059532918 0.18499994 2830122
0.79518926 -0.06104853 0.18499994 2830122
0.79518926 -0.062564157 0.18499994 2830122
0.79518926 -0.064079784 0.18499994 2896685
0.79518926 -0.065595396 0.18499994 2830892
0.79550856 -0.067359485 0.18399996 2830892
0.79550856 -0.068877734 0.18399996 2896685
0.79518926 -0.070142277 0.18499994 3094064
0.79518926 -0.071657889 0.18499994 3094064
0.79518926 -0.073173515 0.18499994 3094064
0.79518926 -0.074689128 0.18499994 3291443
0.79518926 -0.076204754 0.18499994 3619385
0.79550856 -0.077987127 0.18399996 3882557
0.79462373 0.031168576 0.18199998 7103839
0.79462373 0.029645115 0.18199998 3222570
0.79462373 0.028121658 0.18199998 2499877
0.79430699 0.026684649 0.18299997 2499879
0.79430699 0.0251638 0.18299997 2368548
0.79430699 0.02364295 0.18299997 2368548
0.79430699 0.0221221 0.18299997 2434341
0.79430699 0.020601254 0.18299997 2369318
0.79430699 0.019080404 0.18299997 2369318
0.79430699 0.017559554 0.18299997 2303778
0.79430699 0.016038708 0.18299997 2303778
0.79430699 0.014517859 0.18299997 2435364
0.79430699 0.012997009 0.18299997 2369571
0.79462373 0.011363581 0.18199998 2435362
0.79430699 0.0099553168 0.18299997 2566178
0.79430699 0.008434467 0.18299997 2434592
0.79430699 0.0069136173 0.18299997 2500385
0.79430699 0.0053927675 0.18299997 2434592
0.79430699 0.0038719177 0.18299997 2368801
0.79430699 0.0023510754 0.18299997 2237215
0.79430699 0.00083022565 0.18299997 2368801
0.79430699 -0.00069062412 0.18299997 2434594
0.79399037 -0.0020753741 0.18399996 2434592
0.79399037 -0.0035936087 0.18399996 2434592
0.79399037 -0.0051118433 0.18399996 2566178
0.79399037 -0.006630078 0.18399996 2500385
0.79367369 -0.0080017671 0.18499994 2500385
0.79367369 -0.0095173866 0.18499994 2500385
0.79367369 -0.011033006 0.18499994 2434592
0.79367369 -0.012548633 0.18499994 2434592
0.79367369 -0.014064252 0.18499994 2500385
0.79335701 -0.015420258 0.18599993 2500385
0.79335701 -0.016933262 0.18599993 2500385
0.79335701 -0.018446267 0.18599993 2631973
0.79335701 -0.019959278 0.18599993 2631973
0.79335701 -0.02147229 0.18599993 2631973
0.79335701 -0.022985294 0.18599993 2631973
0.79335701 -0.024498306 0.18599993 2631973
0.79304028 -0.025833398 0.18699998 2631973
0.79304028 -0.027343787 0.18699998 2631971
0.79304028 -0.028854184 0.18699998 2631971
0.79304028 -0.03036458 0.18699998 2697764
0.79304028 -0.031874977 0.18699998 2829350
0.79304028 -0.033385374 0.18699998 2895143
0.79304028 -0.03489577 0.18699998 2895143
0.79304028 -0.036406167 0.18699998 2895143
0.79304028 -0.037916563 0.18699998 2895143
0.79304028 -0.03942696 0.18699998 3026729
0.79272366 -0.040733315 0.18799996 2895143
0.79272366 -0.042241096 0.18799996 2960936
0.79272366 -0.043748878 0.18799996 3026729
0.79272366 -0.045256667 0.18799996 3158315
0.79272366 -0.046764448 0.18799996 3158315
0.79272366 -0.04827223 0.18799996 3289903
0.79272366 -0.049780019 0.18799996 3092524
0.79272366 -0.051287793 0.18799996 3092524
0.79272366 -0.052795567 0.18799996 2961708
0.79272366 -0.054303356 0.18799996 2895915
0.79304028 -0.056041308 0.18699998 2764329
0.79304028 -0.057551704 0.18699998 2764329
0.79335701 -0.059297509 0.18599993 2895915
0.79335701 -0.060810529 0.18599993 2895915
0.79335701 -0.062323533 0.18599993 2895915
0.79335701 -0.063836537 0.18599993 3159087
0.79335701 -0.065349557 0.18599993 3027501
0.79335701 -0.066862561 0.18599993 2961708
0.79335701 -0.06837558 0.18599993 2961708
0.79335701 -0.069888584 0.18599993 3028271
0.79335701 -0.071401589 0.18599993 3094064
0.79335701 -0.072914593 0.18599993 3094064
0.79335701 -0.074427597 0.18599993 3356466
0.79335701 -0.075940616 0.18599993 3356213
0.79335701 -0.077453621 0.18599993 3619385
0.79367369 -0.08075162 0.18499994 3685431
0.79367369 -0.082267247 0.18499994 9869194
0.79278618 0.031247191 0.18299997 6708827
0.79278618 0.029726341 0.18299997 3222570
0.79247212 0.028289337 0.18399996 2499877
0.79247212 0.026771098 0.18399996 2499877
0.79247212 0.025252864 0.18399996 2368548
0.79215801 0.023826305 0.18499994 2368548
0.79247212 0.022216391 0.18399996 2434341
0.79247212 0.020698156 0.18399996 2303525
0.79247212 0.019179922 0.18399996 2369318
0.79247212 0.017661687 0.18399996 2303778
0.79247212 0.016143449 0.18399996 2303778
0.79215801 0.014732569 0.18499994 2369571
0.79247212 0.013106979 0.18399996 2435364
0.79215801 0.011701323 0.18499994 2435362
0.79215801 0.010185704 0.18499994 2566178
0.79215801 0.0086700842 0.18499994 2434592
0.79215801 0.0071544647 0.18499994 2500385
0.79215801 0.0056388378 0.18499994 2434592
0.79215801 0.0041232184 0.18499994 2368801
0.79215801 0.0026075915 0.18499994 2237215
0.79215801 0.001091972 0.18499994 2368801
0.79215801 -0.00042364746 0.18499994 2434594
0.79184401 -0.0018031746 0.18599993 2434592
0.79184401 -0.0033161789 0.18599993 2434592
0.79184401 -0.0048291907 0.18599993 2369569
0.79184401 -0.0063422024 0.18599993 2303776
0.79184401 -0.0078552142 0.18599993 2435362
0.79152989 -0.009219043 0.18699998 2303776
0.79152989 -0.01072944 0.18699998 2303776
0.79152989 -0.012239836 0.18699998 2434592
0.79121584 -0.013593227 0.18799996 2434592
0.79121584 -0.015101008 0.18799996 2500385
0.79121584 -0.01660879 0.18799996 2434592
0.79121584 -0.018116571 0.18799996 2566178
0.79121584 -0.019624352 0.18799996 2566178
0.79090178 -0.020962067 0.18899995 2566178
0.79090178 -0.022467233 0.18899995 2566180
0.79090178 -0.023972407 0.18899995 2631971
0.79090178 -0.025477573 0.18899995 2697764
0.79090178 -0.026982747 0.18899995 2631971
0.79090178 -0.028487913 0.18899995 2631971
0.79090178 -0.029993087 0.18899995 2631971
0.79090178 -0.031498253 0.18899995 2631971
0.79090178 -0.033003427 0.18899995 2829350
0.79090178 -0.034508593 0.18899995 2697764
0.79090178 -0.036013767 0.18899995 2829350
0.79090178 -0.037518933 0.18899995 2829350
0.79090178 -0.039024107 0.18899995 2829350
0.79090178 -0.040529273 0.18899995 2829350
0.79090178 -0.042034447 0.18899995 2895143
0.79090178 -0.043539613 0.18899995 3026729
0.79058772 -0.0448329 0.18999994 3092522
0.79058772 -0.046335459 0.18999994 3026729
0.79058772 -0.047838017 0.18999994 2961706
0.79058772 -0.049340568 0.18999994 2895913
0.79090178 -0.051065452 0.18899995 3092524
0.79090178 -0.052570619 0.18899995 3092524
0.79090178 -0.0540758 0.18899995 2895915
0.79090178 -0.055580966 0.18899995 2895145
0.79090178 -0.057086132 0.18899995 2895145
0.79090178 -0.058591299 0.18899995 2830122
0.79090178 -0.06009648 0.18899995 2830122
0.79121584 -0.06184227 0.18799996 2895915
0.79121584 -0.063350059 0.18799996 3027501
0.79121584 -0.064857833 0.18799996 3027501
0.79121584 -0.066365622 0.18799996 2961708
0.79121584 -0.067873411 0.18799996 3027501
0.79121584 -0.069381185 0.18799996 3028271
0.79121584 -0.070888959 0.18799996 3094064
0.79121584 -0.072396748 0.18799996 3094064
0.79121584 -0.073904522 0.18799996 3290673
0.79121584 -0.075412311 0.18799996 3356466
0.79121584 -0.076920085 0.18799996 3422006
0.79152989 -0.078697257 0.18699998 3882810
0.79064244 0.028373174 0.18499994 2630693
0.79064244 0.026857551 0.18499994 2564900
0.79033101 0.025430992 0.18599993 2368548
0.79033101 0.023917984 0.18599993 2236962
0.79033101 0.022404972 0.18599993 2237732
0.79033101 0.020891964 0.18599993 2303525
0.79033101 0.019378956 0.18599993 2303778
0.79033101 0.017865945 0.18599993 2434592
0.79033101 0.016352937 0.18599993 2368799
0.79033101 0.014839925 0.18599993 2500385
0.79033101 0.013326921 0.18599993 2435362
0.79033101 0.011813909 0.18599993 2369569
0.79033101 0.010300905 0.18599993 2500385
0.79001951 0.0089057088 0.18699998 2434592
0.79001951 0.0073953122 0.18699998 2500385
0.79001951 0.0058849156 0.18699998 2368801
0.79001951 0.004374519 0.18699998 2434594
0.79001951 0.0028641224 0.18699998 2237215
0.79001951 0.0013537258 0.18699998 2368801
0.79001951 -0.00015667081 0.18699998 2434594
0.78970808 -0.0015309677 0.18799996 2434594
0.78970808 -0.0030387491 0.18799996 2434594
0.78970808 -0.0045465305 0.18799996 2369571
0.78970808 -0.006054312 0.18799996 2303778
0.78970808 -0.0075620934 0.18799996 2369569
0.78939664 -0.0089207143 0.18899995 2237983
0.78939664 -0.010425881 0.18899995 2303776
0.78939664 -0.011931054 0.18899995 2237983
0.78939664 -0.013436221 0.18899995 2237983
0.78908515 -0.014781773 0.18999994 2369569
0.78908515 -0.016284324 0.18999994 2303776
0.78908515 -0.017786883 0.18999994 2369569
0.78908515 -0.019289434 0.18999994 2566178
0.78908515 -0.020791993 0.18999994 2500385
0.78908515 -0.022294551 0.18999994 2566180
0.78908515 -0.02379711 0.18999994 2631973
0.78908515 -0.025299661 0.18999994 2631971
0.78877372 -0.026621684 0.19099998 2631971
0.78877372 -0.028121628 0.19099998 2631971
0.78877372 -0.029621571 0.19099998 2631971
0.78877372 -0.031121515 0.19099998 2631971
0.78877372 -0.032621458 0.19099998 2829350
0.78877372 -0.034121402 0.19099998 2697764
0.78877372 -0.035621345 0.19099998 2697764
0.78877372 -0.037121288 0.19099998 2697764
0.78877372 -0.038621239 0.19099998 2697764
0.78877372 -0.040121183 0.19099998 2829350
0.78877372 -0.041621126 0.19099998 2895143
0.78877372 -0.04312107 0.19099998 2960936
0.78877372 -0.044621013 0.19099998 3026729
0.78877372 -0.046120957 0.19099998 3026729
0.78877372 -0.0476209 0.19099998 2961706
0.78877372 -0.049120836 0.19099998 2961708
0.78877372 -0.050620772 0.19099998 2895915
0.78877372 -0.052120723 0.19099998 3027501
0.78877372 -0.053620659 0.19099998 3027501
0.78877372 -0.05512061 0.19099998 2960938
0.78908515 -0.056853347 0.18999994 2960938
0.78908515 -0.058355905 0.18999994 2830122
0.78908515 -0.059858464 0.18999994 2895915
0.78908515 -0.061361022 0.18999994 2895915
0.78908515 -0.062863581 0.18999994 2961708
0.78908515 -0.064366139 0.18999994 2961708
0.78908515 -0.065868683 0.18999994 2895915
0.78908515 -0.067371257 0.18999994 3027501
0.78908515 -0.0688738 0.18999994 3027501
0.78908515 -0.070376359 0.18999994 3159087
0.78908515 -0.071878918 0.18999994 3159087
0.78908515 -0.073381461 0.18999994 3355696
0.78908515 -0.074884035 0.18999994 3421489
0.78939664 -0.076653339 0.18899995 3421489
0.78970808 -0.078427888 0.18799996 3816247
0.78970808 -0.079935662 0.18799996 3947833
0.79001951 -0.08171805 0.18699998 7433320
0.78912681 0.031404413 0.18499994 5130047
0.78912681 0.02988879 0.18499994 2630433
0.78881794 0.028457012 0.18599993 2696488
0.78881794 0.026944 0.18599993 2564900
0.78820026 0.025609128 0.18799996 2236962
0.78820026 0.024101343 0.18799996 2303525
0.78820026 0.022593562 0.18799996 2237732
0.78820026 0.021085776 0.18799996 2303525
0.78820026 0.019577995 0.18799996 2369571
0.78820026 0.018070213 0.18799996 2303776
0.78789145 0.016667172 0.18899995 2303776
0.78789145 0.015162002 0.18899995 2303776
0.78789145 0.013656832 0.18899995 2435362
0.78789145 0.012151659 0.18899995 2369569
0.78789145 0.0106465 0.18899995 2500385
0.78789145 0.009141326 0.18899995 2368799
0.78789145 0.0076361597 0.18899995 2434592
0.78789145 0.0061309859 0.18899995 2368801
0.78789145 0.0046258196 0.18899995 2434594
0.78789145 0.0031206459 0.18899995 2237215
0.78789145 0.0016154796 0.18899995 2237215
0.78789145 0.00011030585 0.18899995 2368801
0.78758264 -0.0012587607 0.18999994 2434594
0.78758264 -0.0027613193 0.18999994 2368801
0.78758264 -0.0042638779 0.18999994 2500387
0.78758264 -0.0057664365 0.18999994 2434594
0.78758264 -0.0072689876 0.18999994 2500387
0.78758264 -0.0087715462 0.18999994 2368801
0.78758264 -0.010274105 0.18999994 2434594
0.78758264 -0.011776663 0.18999994 2434594
0.78727376 -0.013122201 0.19099998 2368801
0.78727376 -0.014622144 0.19099998 2434592
0.78727376 -0.01612208 0.19099998 2434592
0.78727376 -0.017622024 0.19099998 2434592
0.78696489 -0.018954508 0.19199997 2500385
0.78696489 -0.020451844 0.19199997 2500385
0.78696489 -0.021949172 0.19199997 2500385
0.78696489 -0.0234465 0.19199997 2566178
0.78696489 -0.024943836 0.19199997 2566178
0.78696489 -0.026441164 0.19199997 2631971
0.78696489 -0.027938493 0.19199997 2566178
0.78696489 -0.029435828 0.19199997 2566178
0.78696489 -0.030933157 0.19199997 2566178
0.78696489 -0.032430485 0.19199997 2631971
0.78696489 -0.033927813 0.19199997 2631971
0.78696489 -0.035425149 0.19199997 2631971
0.78665608 -0.036723658 0.19299996 2631971
0.78665608 -0.038218379 0.19299996 2697764
0.78665608 -0.0397131 0.19299996 2631971
0.78665608 -0.041207813 0.19299996 2829350
0.78665608 -0.042702533 0.19299996 2829350
0.78665608 -0.044197246 0.19299996 2960936
0.78665608 -0.045691967 0.19299996 2895143
0.78665608 -0.04718668 0.19299996 2764327
0.78665608 -0.048681401 0.19299996 2830122
0.78696489 -0.050398447 0.19199997 2830122
0.78696489 -0.051895775 0.19199997 2961708
0.78696489 -0.053393103 0.19199997 3027501
0.78696489 -0.054890431 0.19199997 3092524
0.78696489 -0.05638776 0.19199997 2960938
0.78696489 -0.057885088 0.19199997 2895145
0.78727376 -0.059620433 0.19099998 2960938
0.78727376 -0.061120383 0.19099998 3026731
0.78727376 -0.062620319 0.19099998 2961708
0.78727376 -0.06412027 0.19099998 2895915
0.78727376 -0.065620206 0.19099998 2895915
0.78727376 -0.067120157 0.19099998 3027501
0.78727376 -0.068620093 0.19099998 3027501
0.78727376 -0.070120029 0.19099998 3027501
0.78727376 -0.07161998 0.19099998 3027501
0.78727376 -0.073119916 0.19099998 3355696
0.78727376 -0.074619867 0.19099998 3355696
0.78727376 -0.076119803 0.19099998 3421489
0.78758264 -0.077889152 0.18999994 3684404
0.78789145 -0.079663672 0.18899995 3881783
0.78789145 -0.081168853 0.18899995 5064772
0.78761119 0.031404413 0.18499994 1709078
0.787305 0.029970016 0.18599993 2498594
0.7866925 0.028624695 0.18799996 2762281
0.7866925 0.02711691 0.18799996 2564900
0.78638625 0.025698192 0.18899995 2302498
0.78638625 0.024193022 0.18899995 2237732
0.78638625 0.022687852 0.18899995 2106146
0.78638625 0.021182682 0.18899995 2237732
0.78608006 0.01977703 0.18999994 2434594
0.78608006 0.018274471 0.18999994 2368799
0.78608006 0.016771916 0.18999994 2237983
0.78608006 0.015269358 0.18999994 2237983
0.78608006 0.013766803 0.18999994 2303776
0.78577381 0.01237683 0.19099998 2303776
0.78577381 0.010876894 0.19099998 2303776
0.78577381 0.0093769506 0.19099998 2237985
0.78577381 0.0078770071 0.19099998 2303778
0.78577381 0.0063770637 0.19099998 2106399
0.78577381 0.0048771203 0.19099998 2237985
0.78577381 0.0033771768 0.19099998 2040606
0.78577381 0.0018772334 0.19099998 2106399
0.78577381 0.00037728995 0.19099998 2106399
0.78577381 -0.0011226535 0.19099998 2237985
0.78577381 -0.0026225969 0.19099998 2303778
0.78577381 -0.0041225404 0.19099998 2434594
0.78546762 -0.005478546 0.19199997 2434594
0.78546762 -0.0069758743 0.19199997 2434594
0.78546762 -0.00847321 0.19199997 2434594
0.78546762 -0.0099705383 0.19199997 2434594
0.78546762 -0.011467867 0.19199997 2368801
0.78546762 -0.012965195 0.19199997 2368801
0.78546762 -0.014462531 0.19199997 2500387
0.78546762 -0.015959851 0.19199997 2434594
0.78546762 -0.01745718 0.19199997 2500385
0.78516138 -0.018787056 0.19299996 2500385
0.78516138 -0.020281769 0.19299996 2500385
0.78516138 -0.02177649 0.19299996 2500385
0.78516138 -0.023271203 0.19299996 2500385
0.78516138 -0.024765924 0.19299996 2566178
0.78516138 -0.026260637 0.19299996 2631971
0.78516138 -0.027755357 0.19299996 2435362
0.78516138 -0.029250078 0.19299996 2435362
0.78516138 -0.030744791 0.19299996 2566178
0.78516138 -0.032239512 0.19299996 2631971
0.78485513 -0.033540636 0.19399995 2631971
0.78485513 -0.035032742 0.19399995 2566178
0.78485513 -0.036524847 0.19399995 2566178
0.78485513 -0.038016953 0.19399995 2697764
0.78454894 -0.039305016 0.19499993 2631971
0.78454894 -0.040794507 0.19499993 2829350
0.78454894 -0.042283997 0.19499993 2829350
0.78454894 -0.043773487 0.19499993 2895143
0.78454894 -0.045262977 0.19499993 2895143
0.78454894 -0.046752468 0.19499993 2895143
0.78454894 -0.048241965 0.19499993 2764329
0.78485513 -0.049953781 0.19399995 2764329
0.78485513 -0.051445879 0.19399995 2895915
0.78485513 -0.052937992 0.19399995 2961708
0.78516138 -0.054660268 0.19299996 3092524
0.78516138 -0.056154974 0.19299996 2895145
0.78516138 -0.057649694 0.19299996 2829352
0.78516138 -0.059144415 0.19299996 2960938
0.78516138 -0.060639136 0.19299996 2960938
0.78516138 -0.062133856 0.19299996 2961708
0.78516138 -0.063628562 0.19299996 2895915
0.78546762 -0.065371744 0.19199997 2961708
0.78546762 -0.066869088 0.19199997 2961708
0.78546762 -0.068366416 0.19199997 2961708
0.78546762 -0.069863729 0.19199997 2961708
0.78546762 -0.071361072 0.19199997 2961708
0.78546762 -0.072858386 0.19199997 3158317
0.78516138 -0.074091591 0.19299996 3289903
0.78546762 -0.075853057 0.19199997 3355443
0.78577381 -0.077619754 0.19099998 3421236
0.78608006 -0.079391696 0.18999994 3552822
0.78638625 -0.081168853 0.18899995 3946806
0.7866925 -0.082951225 0.18799996 8420467
0.78579193 0.031483024 0.18599993 1577492
0.78548831 0.030051246 0.18699998 2301215
0.78488111 0.028708532 0.18899995 2763051
0.78488111 0.027203362 0.18899995 2499877
0.78457749 0.025787257 0.18999994 2236705
0.78457749 0.024284698 0.18999994 2236962
0.78457749 0.022782143 0.18999994 2236962
0.78427386 0.021376494 0.19099998 2368548
0.78427386 0.019876551 0.19099998 2368801
0.78427386 0.018376607 0.19099998 2237215
0.78427386 0.016876664 0.19099998 2368801
0.78397024 0.015484076 0.19199997 2237215
0.78397024 0.013986744 0.19199997 2237985
0.78397024 0.012489416 0.19199997 2237985
0.78397024 0.010992087 0.19199997 2237985
0.78397024 0.0094947591 0.19199997 2237985
0.78397024 0.0079974309 0.19199997 2303778
0.78366661 0.006623134 0.19299996 2106399
0.78366661 0.0051284134 0.19299996 2106399
0.78366661 0.0036337003 0.19299996 2106399
0.78366661 0.0021389797 0.19299996 2106399
0.78366661 0.00064426661 0.19299996 2106399
0.78366661 -0.00085045397 0.19299996 2237985
0.78366661 -0.0023451746 0.19299996 2303778
0.78366661 -0.0038398877 0.19299996 2434592
0.78366661 -0.0053346083 0.19299996 2368799
0.78366661 -0.0068293214 0.19299996 2434592
0.78366661 -0.008324042 0.19299996 2434592
0.78366661 -0.0098187551 0.19299996 2434594
0.78366661 -0.011313476 0.19299996 2434594
0.78366661 -0.012808196 0.19299996 2434594
0.78366661 -0.014302909 0.19299996 2500387
0.78366661 -0.015797623 0.19299996 2434594
0.78336304 -0.017127492 0.19399995 2500385
0.78336304 -0.018619597 0.19399995 2500385
0.78336304 -0.020111702 0.19399995 2500385
0.78336304 -0.021603808 0.19399995 2500385
0.78336304 -0.023095906 0.19399995 2500385
0.78336304 -0.024588011 0.19399995 2566178
0.78336304 -0.026080117 0.19399995 2631971
0.78336304 -0.027572222 0.19399995 2566178
0.78336304 -0.029064327 0.19399995 2500385
0.78305942 -0.030368067 0.19499993 2500385
0.78305942 -0.031857558 0.19499993 2566178
0.78305942 -0.033347048 0.19499993 2631971
0.78305942 -0.034836538 0.19499993 2566178
0.78305942 -0.036326028 0.19499993 2500385
0.78275579 -0.037614085 0.19599998 2631971
0.78275579 -0.03910096 0.19599998 2631971
0.78275579 -0.040587842 0.19599998 2697764
0.78275579 -0.042074718 0.19599998 2697764
0.78275579 -0.043561593 0.19599998 2697764
0.78275579 -0.045048475 0.19599998 2829350
0.78275579 -0.04653535 0.19599998 2829350
0.78275579 -0.048022233 0.19599998 2829352
0.78275579 -0.049509101 0.19599998 2829352
0.78275579 -0.050995968 0.19599998 2895145
0.78305942 -0.052710421 0.19499993 2895145
0.78305942 -0.054199912 0.19499993 2895145
0.78305942 -0.055689402 0.19499993 2829352
0.78305942 -0.057178892 0.19499993 2697766
0.78336304 -0.058906399 0.19399995 2829352
0.78336304 -0.060398512 0.19399995 2895145
0.78336304 -0.06189061 0.19399995 2961708
0.78336304 -0.063382722 0.19399995 2895915
0.78366661 -0.065123282 0.19299996 3027501
0.78366661 -0.066618003 0.19299996 2961708
0.78366661 -0.068112724 0.19299996 2895915
0.78366661 -0.069607429 0.19299996 2895915
0.78366661 -0.07110215 0.19299996 2961708
0.78366661 -0.072596855 0.19299996 3092524
0.78366661 -0.074091591 0.19299996 3092524
0.78366661 -0.075586297 0.19299996 3158064
0.78397024 -0.077350385 0.19199997 3355443
0.78427386 -0.07911969 0.19099998 3421236
0.78457749 -0.080894254 0.18999994 4143932
0.78427893 0.031483024 0.18599993 1709078
0.78367692 0.030132473 0.18799996 2301215
0.78337592 0.028708532 0.18899995 2763051
0.78307498 0.027289812 0.18999994 2499877
0.78277391 0.025876325 0.19099998 2171169
0.78277391 0.024376381 0.19099998 2236962
0.78277391 0.022876438 0.19099998 2236962
0.78247297 0.0214734 0.19199997 2368801
0.78247297 0.019976068 0.19199997 2237215
0.78247297 0.018478736 0.19199997 2237215
0.78217196 0.017086152 0.19299996 2237215
0.78217196 0.015591431 0.19299996 2237215
0.78217196 0.014096715 0.19299996 2106399
0.78217196 0.012602001 0.19299996 2106399
0.78217196 0.011107288 0.19299996 2106399
0.78217196 0.0096125677 0.19299996 2106146
0.78187096 0.0082382709 0.19399995 2237732
0.78187096 0.0067461655 0.19399995 2106146
0.78187096 0.0052540675 0.19399995 2237985
0.78187096 0.0037619621 0.19399995 2237215
0.78187096 0.0022698566 0.19399995 2237215
0.78156996 0.00091123581 0.19499993 2237215
0.78156996 -0.00057825446 0.19499993 2237985
0.78156996 -0.0020677447 0.19499993 2303778
0.78156996 -0.003557235 0.19499993 2368799
0.78156996 -0.0050467253 0.19499993 2368799
0.78187096 -0.0066827685 0.19399995 2368799
0.78187096 -0.0081748739 0.19399995 2368799
0.78187096 -0.0096669793 0.19399995 2434592
0.78187096 -0.011159085 0.19399995 2368799
0.78156996 -0.012494184 0.19499993 2434592
0.78156996 -0.013983674 0.19499993 2500385
0.78156996 -0.015473157 0.19499993 2500385
0.78156996 -0.016962647 0.19499993 2500385
0.78156996 -0.018452138 0.19499993 2500385
0.78156996 -0.019941628 0.19499993 2500385
0.78156996 -0.021431118 0.19499993 2434592
0.78156996 -0.022920609 0.19499993 2500385
0.78156996 -0.024410106 0.19499993 2566178
0.78156996 -0.025899597 0.19499993 2566178
0.78126895 -0.027205937 0.19599998 2500385
0.78126895 -0.028692819 0.19599998 2500385
0.78126895 -0.030179694 0.19599998 2500385
0.78126895 -0.031666569 0.19599998 2434592
0.78126895 -0.033153452 0.19599998 2566178
0.78126895 -0.034640327 0.19599998 2566178
0.78126895 -0.036127202 0.19599998 2500385
0.78096795 -0.037412658 0.19699997 2566178
0.78096795 -0.038896918 0.19699997 2566178
0.78096795 -0.040381186 0.19699997 2631971
0.78096795 -0.041865446 0.19699997 2631971
0.78096795 -0.043349713 0.19699997 2631971
0.78096795 -0.044833981 0.19699997 2697764
0.78096795 -0.04631824 0.19699997 2829350
0.78096795 -0.047802508 0.19699997 2697764
0.78096795 -0.04928676 0.19699997 2829350
0.78096795 -0.050771035 0.19699997 2829350
0.78126895 -0.052482851 0.19599998 2895143
0.78126895 -0.053969733 0.19599998 2895143
0.78126895 -0.055456616 0.19599998 2829350
0.78126895 -0.056943484 0.19599998 2697764
0.78156996 -0.058668397 0.19499993 2697764
0.78156996 -0.060157888 0.19499993 2829350
0.78156996 -0.061647378 0.19499993 3026729
0.78156996 -0.063136868 0.19499993 3026729
0.78156996 -0.064626358 0.19499993 3092522
0.78156996 -0.066115849 0.19499993 2961706
0.78187096 -0.067859031 0.19399995 2895915
0.78187096 -0.069351129 0.19399995 2895915
0.78187096 -0.070843242 0.19399995 3026731
0.78156996 -0.07207381 0.19499993 3092524
0.78156996 -0.0735633 0.19499993 3092524
0.78187096 -0.075319536 0.19399995 3092271
0.78217196 -0.077081017 0.19299996 3289650
0.78247297 -0.078847714 0.19199997 3421236
0.78307498 -0.080894254 0.18999994 3881530
0.78246754 0.031561643 0.18699998 1709331
0.78187072 0.030213699 0.18899995 2235675
0.78157234 0.02879237 0.18999994 2763049
0.78127396 0.027376268 0.19099998 2499877
0.78127396 0.025876325 0.19099998 2236705
0.78097558 0.024468061 0.19199997 2171169
0.78097558 0.022970729 0.19199997 2171169
0.7806772 0.021570303 0.19299996 2237215
0.7806772 0.020075586 0.19299996 2237215
0.78037882 0.018682998 0.19399995 2171422
0.78037882 0.017190892 0.19399995 2171422
0.78008044 0.015806146 0.19499993 2171422
0.78008044 0.014316656 0.19499993 2171422
0.78008044 0.012827165 0.19499993 2171422
0.78008044 0.011337675 0.19499993 2237215
0.78008044 0.0098481849 0.19499993 2171422
0.78008044 0.0083586946 0.19499993 2237215
0.78008044 0.0068692043 0.19499993 2237215
0.78008044 0.0053797141 0.19499993 2368801
0.78008044 0.0038902238 0.19499993 2237215
0.78008044 0.0024007261 0.19499993 2237215
0.78008044 0.00091123581 0.19499993 2237215
0.77978206 -0.00044214725 0.19599998 2368801
0.77978206 -0.0019290224 0.19599998 2434594
0.77978206 -0.0034158975 0.19599998 2434592
0.77978206 -0.0049027801 0.19599998 2368799
0.77978206 -0.0063896552 0.19599998 2368799
0.77978206 -0.0078765303 0.19599998 2368799
0.77978206 -0.0093634129 0.19599998 2434592
0.77978206 -0.010850288 0.19599998 2368799
0.77978206 -0.012337171 0.19599998 2434592
0.77978206 -0.013824046 0.19599998 2566178
0.77978206 -0.015310913 0.19599998 2500385
0.77978206 -0.016797796 0.19599998 2434592
0.77978206 -0.018284671 0.19599998 2434592
0.77978206 -0.019771546 0.19599998 2500385
0.77978206 -0.021258429 0.19599998 2434592
0.77978206 -0.022745304 0.19599998 2500385
0.77978206 -0.024232179 0.19599998 2566178
0.77978206 -0.025719061 0.19599998 2566178
0.77978206 -0.027205937 0.19599998 2500385
0.77948368 -0.028507069 0.19699997 2500385
0.77948368 -0.029991329 0.19699997 2500385
0.77948368 -0.031475596 0.19699997 2434592
0.77948368 -0.032959864 0.19699997 2566178
0.77948368 -0.034444124 0.19699997 2500385
0.7791853 -0.035729572 0.19799995 2500385
0.7791853 -0.037211224 0.19799995 2566178
0.7791853 -0.038692877 0.19799995 2566178
0.7791853 -0.040174529 0.19799995 2566178
0.7791853 -0.041656181 0.19799995 2631971
0.7791853 -0.043137833 0.19799995 2566178
0.7791853 -0.044619486 0.19799995 2631971
0.7791853 -0.046101138 0.19799995 2697764
0.7791853 -0.04758279 0.19799995 2697764
0.7791853 -0.049064435 0.19799995 2829350
0.7791853 -0.050546087 0.19799995 2829350
0.7791853 -0.05202774 0.19799995 2895143
0.77948368 -0.053739555 0.19699997 2697764
0.77948368 -0.05522383 0.19699997 2829350
0.77948368 -0.05670809 0.19699997 2697764
0.77978206 -0.058430366 0.19599998 2697764
0.77978206 -0.059917249 0.19599998 2697764
0.77978206 -0.061404116 0.19599998 2960936
0.77978206 -0.062890999 0.19599998 3026731
0.77978206 -0.064377882 0.19599998 3026731
0.78008044 -0.066115849 0.19499993 3026731
0.78008044 -0.067605339 0.19499993 3026731
0.78008044 -0.069094814 0.19499993 3026731
0.78008044 -0.07058432 0.19499993 3026474
0.78008044 -0.07207381 0.19499993 3092267
0.78008044 -0.0735633 0.19499993 3092524
0.78008044 -0.07505279 0.19499993 3092271
0.78037882 -0.076811649 0.19399995 3158064
0.78097558 -0.078847714 0.19199997 3355443
0.78127396 -0.080619641 0.19099998 3684151
0.78066134 0.031640254 0.18799996 1446159
0.78036559 0.030213699 0.18899995 2169882
0.77977407 0.028876211 0.19099998 2697256
0.77977407 0.027376268 0.19099998 2499877
0.77947825 0.025965389 0.19199997 2236705
0.77918249 0.024559736 0.19299996 2236958
0.77918249 0.023065019 0.19299996 2236958
0.77888674 0.021667205 0.19399995 2302751
0.77859098 0.020274621 0.19499993 2302751
0.77859098 0.018785127 0.19499993 2171422
0.77859098 0.017295636 0.19499993 2171422
0.77859098 0.015806146 0.19499993 2171422
0.77829516 0.014426634 0.19599998 2105629
0.77829516 0.012939751 0.19599998 2171422
0.77829516 0.011452876 0.19599998 2237215
0.77829516 0.0099660009 0.19599998 2171422
0.77829516 0.0084791258 0.19599998 2237215
0.77829516 0.0069922432 0.19599998 2237215
0.77829516 0.0055053681 0.19599998 2368801
0.7779994 0.0041467473 0.19699997 2171422
0.7779994 0.0026624873 0.19699997 2237215
0.7779994 0.0011782199 0.19699997 2368801
0.7779994 -0.0003060475 0.19699997 2237215
0.7779994 -0.0017903075 0.19699997 2434594
0.7779994 -0.0032745749 0.19699997 2368799
0.7779994 -0.0047588348 0.19699997 2369053
0.7779994 -0.0062431023 0.19699997 2369053
0.7779994 -0.0077273697 0.19699997 2368799
0.77829516 -0.0093634129 0.19599998 2434592
0.77829516 -0.010850288 0.19599998 2368799
0.77829516 -0.012337171 0.19599998 2500385
0.77829516 -0.013824046 0.19599998 2566178
0.77829516 -0.015310913 0.19599998 2565921
0.77829516 -0.016797796 0.19599998 2500128
0.7779994 -0.018117212 0.19699997 2434335
0.7779994 -0.019601479 0.19699997 2500128
0.7779994 -0.021085739 0.19699997 2565921
0.7779994 -0.022570007 0.19699997 2565921
0.7779994 -0.024054274 0.19699997 2566178
0.7779994 -0.025538534 0.19699997 2631971
0.7779994 -0.027022801 0.19699997 2500385
0.7779994 -0.028507069 0.19699997 2500385
0.77770364 -0.029802971 0.19799995 2500385
0.77770364 -0.031284623 0.19799995 2500385
0.77770364 -0.032766275 0.19799995 2631971
0.77770364 -0.03424792 0.19799995 2566178
0.77740788 -0.035530761 0.19899994 2566178
0.77740788 -0.037009798 0.19899994 2631971
0.77740788 -0.038488835 0.19899994 2697764
0.77740788 -0.039967872 0.19899994 2631971
0.77740788 -0.041446917 0.19899994 2566178
0.77740788 -0.042925954 0.19899994 2566178
0.77740788 -0.044404991 0.19899994 2697764
0.77740788 -0.045884028 0.19899994 2697764
0.77740788 -0.047363065 0.19899994 2829350
0.77740788 -0.048842095 0.19899994 2829350
0.77770364 -0.050546087 0.19799995 2829350
0.77770364 -0.05202774 0.19799995 2960679
0.77770364 -0.053509392 0.19799995 2763300
0.7779994 -0.05522383 0.19699997 2697764
0.7779994 -0.05670809 0.19699997 2697764
0.7779994 -0.05819235 0.19699997 2697764
0.7779994 -0.059676625 0.19699997 2829350
0.77829516 -0.061404116 0.19599998 2960936
0.77829516 -0.062890999 0.19599998 2960938
0.77829516 -0.064377882 0.19599998 3026731
0.77829516 -0.065864764 0.19599998 3026731
0.77829516 -0.067351632 0.19599998 3026731
0.77829516 -0.068838499 0.19599998 3026731
0.77859098 -0.07058432 0.19499993 3092267
0.77829516 -0.071812265 0.19599998 3158060
0.77829516 -0.073299147 0.19599998 3158060
0.77859098 -0.07505279 0.19499993 3157807
0.77888674 -0.076811649 0.19399995 3223600
0.77918249 -0.078575738 0.19299996 3420979
