# .PCD v0.7 - Point Cloud Data file format
VERSION 0.7
FIELDS x y z rgb
SIZE 4 4 4 4
TYPE F F F U
COUNT 1 1 1 1
WIDTH 1121
HEIGHT 1
VIEWPOINT 0 0 0 1 0 0 0
POINTS 1121
DATA ascii
0.80647379 0.011476159 0.18299997 2106399
0.80647379 0.0099553168 0.18299997 2237985
0.80647379 0.008434467 0.18299997 2237985
0.80647379 0.0069136173 0.18299997 2303778
0.80647379 0.0053927675 0.18299997 2303778
0.80647379 0.0038719177 0.18299997 2237985
0.80647379 0.0023510754 0.18299997 2106399
0.80647379 0.00083022565 0.18299997 2237985
0.80647379 -0.00069062412 0.18299997 2106399
0.80647379 -0.0022114739 0.18299997 2106399
0.80647379 -0.0037323236 0.18299997 2106399
0.80647379 -0.0052531734 0.18299997 2106399
0.80647379 -0.0067740232 0.18299997 2106399
0.80647379 -0.0082948729 0.18299997 2106399
0.80647379 -0.0098157153 0.18299997 2237215
0.80647379 -0.011336565 0.18299997 2368801
0.80647379 -0.012857415 0.18299997 2237215
0.80647379 -0.014378265 0.18299997 2237985
0.80613625 -0.015739493 0.18399996 2237985
0.80613625 -0.01725772 0.18399996 2106399
0.80613625 -0.018775955 0.18399996 2303778
0.80613625 -0.020294189 0.18399996 2303778
0.80613625 -0.021812432 0.18399996 2303778
0.80613625 -0.023330666 0.18399996 2172962
0.80613625 -0.024848901 0.18399996 2239268
0.80613625 -0.026367135 0.18399996 2238755
0.80613625 -0.02788537 0.18399996 2304548
0.80613625 -0.029403605 0.18399996 2238755
0.80613625 -0.030921839 0.18399996 2238755
0.80613625 -0.032440081 0.18399996 2369571
0.80647379 -0.034149289 0.18299997 2501157
0.80647379 -0.035670139 0.18299997 2501157
0.80647379 -0.037190989 0.18299997 2435364
0.80647379 -0.038711838 0.18299997 2435364
0.80647379 -0.040232688 0.18299997 2566950
0.80647379 -0.041753531 0.18299997 2566180
0.80647379 -0.04327438 0.18299997 2631973
0.80613625 -0.044585966 0.18399996 2697766
0.80613625 -0.0461042 0.18399996 2501157
0.80613625 -0.047622435 0.18399996 2500904
0.80613625 -0.049140669 0.18399996 2500904
0.80579865 -0.050439186 0.18499994 2500904
0.80579865 -0.051954798 0.18499994 2501157
0.80579865 -0.053470425 0.18499994 2370341
0.80579865 -0.054986052 0.18499994 2370341
0.80546105 -0.056271501 0.18599993 2436134
0.80546105 -0.057784505 0.18599993 2436134
0.80546105 -0.059297509 0.18599993 2370341
0.80546105 -0.060810529 0.18599993 2370341
0.80546105 -0.062323533 0.18599993 2567720
0.80546105 -0.063836537 0.18599993 2436134
0.80546105 -0.065349557 0.18599993 2436134
0.80546105 -0.066862561 0.18599993 2566950
0.80546105 -0.06837558 0.18599993 2566950
0.80546105 -0.069888584 0.18599993 2566950
0.80546105 -0.071401589 0.18599993 2566950
0.80546105 -0.072914593 0.18599993 2566950
0.80546105 -0.074427597 0.18599993 2566950
0.80579865 -0.076204754 0.18499994 2566950
0.80579865 -0.077720381 0.18499994 2698283
0.80579865 -0.079236008 0.18499994 2764076
0.80579865 -0.08075162 0.18499994 3159604
0.80629283 0.024807535 0.17899996 4342589
0.80629283 0.023276236 0.17899996 2631971
0.80595791 0.021839224 0.17999995 2106399
0.80528796 0.020504348 0.18199998 2040353
0.80495298 0.019080404 0.18299997 2040353
0.80495298 0.017559554 0.18299997 1974813
0.804618 0.016143449 0.18399996 1974813
0.804618 0.014625214 0.18399996 1974813
0.804618 0.013106979 0.18399996 2106399
0.804618 0.011588745 0.18399996 2040606
0.804618 0.01007051 0.18399996 2040606
0.804618 0.0085522756 0.18399996 2106399
0.804618 0.007034041 0.18399996 2237985
0.804618 0.0055158064 0.18399996 2237985
0.804618 0.0039975718 0.18399996 2106399
0.804618 0.0024793297 0.18399996 2106399
0.804618 0.00096109509 0.18399996 2040606
0.804618 -0.00055713952 0.18399996 2040606
0.804618 -0.0020753741 0.18399996 2040606
0.804618 -0.0035936087 0.18399996 2106399
0.804618 -0.0051118433 0.18399996 2040606
0.804618 -0.006630078 0.18399996 2040606
0.804618 -0.00814832 0.18399996 1974813
0.804618 -0.0096665546 0.18399996 2040606
0.804618 -0.011184789 0.18399996 2106399
0.804618 -0.012703024 0.18399996 2040606
0.804618 -0.014221258 0.18399996 2237985
0.804618 -0.015739493 0.18399996 2107169
0.804618 -0.01725772 0.18399996 1975583
0.804618 -0.018775955 0.18399996 2107169
0.80428302 -0.020126738 0.18499994 2107169
0.80428302 -0.021642357 0.18499994 2237985
0.80428302 -0.023157984 0.18499994 2107169
0.80428302 -0.024673603 0.18499994 2173475
0.80428302 -0.026189223 0.18499994 2041889
0.80428302 -0.02770485 0.18499994 2041889
0.80428302 -0.029220469 0.18499994 2172962
0.80428302 -0.030736096 0.18499994 2303778
0.804618 -0.032440081 0.18399996 2369571
0.804618 -0.033958316 0.18399996 2369571
0.804618 -0.03547655 0.18399996 2435364
0.804618 -0.036994785 0.18399996 2435364
0.804618 -0.03851302 0.18399996 2369571
0.804618 -0.040031254 0.18399996 2501157
0.804618 -0.041549489 0.18399996 2501157
0.804618 -0.043067731 0.18399996 2566950
0.80428302 -0.044376694 0.18499994 2698536
0.80428302 -0.045892321 0.18499994 2566697
0.80428302 -0.04740794 0.18499994 2566697
0.80428302 -0.048923559 0.18499994 2566697
0.80428302 -0.050439186 0.18499994 2566697
0.80394804 -0.051732473 0.18599993 2435881
0.80394804 -0.053245477 0.18599993 2370088
0.80394804 -0.054758482 0.18599993 2370088
0.80394804 -0.056271501 0.18599993 2435881
0.80361307 -0.057551704 0.18699998 2567467
0.80361307 -0.059062101 0.18699998 2435881
0.80361307 -0.060572498 0.18699998 2567720
0.80327809 -0.06184227 0.18799996 2436134
0.80327809 -0.063350059 0.18799996 2698536
0.80327809 -0.064857833 0.18799996 2698536
0.80327809 -0.066365622 0.18799996 2566950
0.80327809 -0.067873411 0.18799996 2698536
0.80361307 -0.069634877 0.18699998 2698536
0.80361307 -0.071145259 0.18699998 2698536
0.80361307 -0.07265567 0.18699998 2698536
0.80394804 -0.074427597 0.18599993 2764329
0.80394804 -0.075940616 0.18599993 2764329
0.80394804 -0.077453621 0.18599993 2895915
0.80428302 -0.079236008 0.18499994 2830122
0.80428302 -0.08075162 0.18499994 3159604
0.80442917 0.024896599 0.17999995 4276796
0.80442917 0.023367912 0.17999995 2829350
0.80376446 0.022027809 0.18199998 2106399
0.80343211 0.020601254 0.18299997 2040353
0.80309975 0.019179922 0.18399996 1974560
0.80309975 0.017661687 0.18399996 1909020
0.80309975 0.016143449 0.18399996 1909020
0.8027674 0.014732569 0.18499994 1974813
0.8027674 0.01321695 0.18499994 2040606
0.8027674 0.011701323 0.18499994 1974813
0.8027674 0.010185704 0.18499994 1974813
0.8027674 0.0086700842 0.18499994 2040606
0.8027674 0.0071544647 0.18499994 2106399
0.8027674 0.0056388378 0.18499994 2106399
0.8027674 0.0041232184 0.18499994 2040606
0.8027674 0.0026075915 0.18499994 2040606
0.8027674 0.001091972 0.18499994 2040606
0.8027674 -0.00042364746 0.18499994 1974813
0.8027674 -0.0019392744 0.18499994 1974813
0.8027674 -0.0034548938 0.18499994 1974813
0.8027674 -0.0049705207 0.18499994 1974813
0.8027674 -0.0064861402 0.18499994 1974813
0.8027674 -0.0080017671 0.18499994 1974813
0.8027674 -0.0095173866 0.18499994 1974813
0.8027674 -0.011033006 0.18499994 2106399
0.8027674 -0.012548633 0.18499994 2040606
0.8027674 -0.014064252 0.18499994 2106399
0.8027674 -0.015579879 0.18499994 1975583
0.8027674 -0.017095491 0.18499994 1975583
0.8027674 -0.018611111 0.18499994 1909790
0.8027674 -0.020126738 0.18499994 1909790
0.8027674 -0.021642357 0.18499994 2040606
0.80243504 -0.022985294 0.18599993 2107169
0.80243504 -0.024498306 0.18599993 2173475
0.80243504 -0.026011318 0.18599993 2107682
0.80243504 -0.027524322 0.18599993 2107682
0.8027674 -0.029220469 0.18499994 2303778
0.8027674 -0.030736096 0.18499994 2237985
0.8027674 -0.032251716 0.18499994 2303778
0.8027674 -0.033767335 0.18499994 2369571
0.8027674 -0.035282962 0.18499994 2435364
0.8027674 -0.036798581 0.18499994 2435364
0.8027674 -0.038314208 0.18499994 2369571
0.8027674 -0.039829828 0.18499994 2435364
0.8027674 -0.041345447 0.18499994 2501157
0.8027674 -0.042861074 0.18499994 2566950
0.8027674 -0.044376694 0.18499994 2566950
0.80243504 -0.045680441 0.18599993 2566697
0.80243504 -0.047193445 0.18599993 2566697
0.80243504 -0.04870645 0.18599993 2435881
0.80243504 -0.050219469 0.18599993 2435881
0.80243504 -0.051732473 0.18599993 2370088
0.80210268 -0.053020515 0.18699998 2435881
0.80210268 -0.054530911 0.18699998 2370088
0.80177033 -0.055811144 0.18799996 2435881
0.80177033 -0.057318918 0.18799996 2567467
0.80177033 -0.058826707 0.18799996 2567467
0.80177033 -0.060334481 0.18799996 2435881
0.80177033 -0.06184227 0.18799996 2435881
0.80177033 -0.063350059 0.18799996 2698536
0.80177033 -0.064857833 0.18799996 2698536
0.80177033 -0.066365622 0.18799996 2698536
0.80177033 -0.067873411 0.18799996 2764329
0.80177033 -0.069381185 0.18799996 2764329
0.80177033 -0.070888959 0.18799996 2633513
0.80177033 -0.072396748 0.18799996 2567720
0.80177033 -0.073904522 0.18799996 2633513
0.80210268 -0.075676464 0.18699998 2764329
0.80210268 -0.077186845 0.18699998 3092524
0.80243504 -0.07896664 0.18599993 2961455
0.80243504 -0.080479644 0.18599993 3224627
0.80290049 0.026425287 0.17999995 6251356
0.80257076 0.024985664 0.18099993 4144953
0.80224097 0.023551274 0.18199998 3092265
0.80191123 0.0221221 0.18299997 2040606
0.8015815 0.020698156 0.18399996 1909020
0.80125177 0.019279439 0.18499994 1974560
0.80125177 0.017763816 0.18499994 1909020
0.80125177 0.016248193 0.18499994 1909020
0.80125177 0.014732569 0.18499994 1909020
0.80092204 0.013326921 0.18599993 1974813
0.80092204 0.011813909 0.18599993 1974813
0.80092204 0.010300905 0.18599993 1909020
0.80092204 0.0087878928 0.18599993 1974813
0.80092204 0.007274881 0.18599993 2040606
0.80092204 0.0057618767 0.18599993 2040606
0.80092204 0.0042488649 0.18599993 2040606
0.80092204 0.0027358532 0.18599993 1974813
0.80092204 0.0012228489 0.18599993 1974813
0.80092204 -0.00029016286 0.18599993 1974813
0.80092204 -0.0018031746 0.18599993 1974813
0.80092204 -0.0033161789 0.18599993 1974813
0.80092204 -0.0048291907 0.18599993 1974813
0.80092204 -0.0063422024 0.18599993 1974813
0.80092204 -0.0078552142 0.18599993 1974813
0.80092204 -0.0093682185 0.18599993 1974813
0.80092204 -0.01088123 0.18599993 2106399
0.80092204 -0.012394242 0.18599993 1974813
0.80092204 -0.013907246 0.18599993 2040606
0.80092204 -0.015420258 0.18599993 1975583
0.80092204 -0.016933262 0.18599993 1975583
0.80092204 -0.018446267 0.18599993 1909790
0.80092204 -0.019959278 0.18599993 1843997
0.80092204 -0.02147229 0.18599993 2040606
0.80092204 -0.022985294 0.18599993 2172962
0.80092204 -0.024498306 0.18599993 2173475
0.8005923 -0.025833398 0.18699998 2238755
0.8005923 -0.027343787 0.18699998 2238755
0.8005923 -0.028854184 0.18699998 2435364
0.8005923 -0.03036458 0.18699998 2303778
0.80092204 -0.03206335 0.18599993 2369571
0.80092204 -0.033576362 0.18599993 2369571
0.80092204 -0.035089374 0.18599993 2435364
0.80092204 -0.036602378 0.18599993 2435364
0.80092204 -0.03811539 0.18599993 2435364
0.80092204 -0.039628401 0.18599993 2435364
0.80092204 -0.041141413 0.18599993 2501157
0.80092204 -0.042654417 0.18599993 2566950
0.80092204 -0.044167429 0.18599993 2566697
0.8005923 -0.045468546 0.18699998 2566697
0.8005923 -0.046978943 0.18699998 2566697
0.80026257 -0.04827223 0.18799996 2370088
0.80026257 -0.049780019 0.18799996 2370088
0.80026257 -0.051287793 0.18799996 2370088
0.80026257 -0.052795567 0.18799996 2567467
0.80026257 -0.054303356 0.18799996 2435881
0.80026257 -0.055811144 0.18799996 2435881
0.79993278 -0.057086132 0.18899995 2567467
0.79993278 -0.058591299 0.18899995 2567467
0.79993278 -0.06009648 0.18899995 2567467
0.79993278 -0.061601646 0.18899995 2435881
0.79993278 -0.063106813 0.18899995 2764329
0.79993278 -0.064611979 0.18899995 2698536
0.79993278 -0.06611716 0.18899995 2698536
0.79993278 -0.067622326 0.18899995 2764329
0.79993278 -0.069127493 0.18899995 2698536
0.79993278 -0.070632659 0.18899995 2633513
0.79993278 -0.07213784 0.18899995 2567720
0.80026257 -0.073904522 0.18799996 2633513
0.80026257 -0.075412311 0.18799996 2764329
0.80026257 -0.076920085 0.18799996 2895915
0.8005923 -0.078697257 0.18699998 2961455
0.80092204 -0.080479644 0.18599993 3027248
0.80092204 -0.081992663 0.18599993 3750971
0.80071753 0.026598196 0.18199998 6119000
0.80071753 0.025074735 0.18199998 4079160
0.80039042 0.02364295 0.18299997 3092265
0.80006325 0.022216391 0.18399996 2040604
0.79973614 0.020795062 0.18499994 1974813
0.79940903 0.019378956 0.18599993 1974813
0.79940903 0.017865945 0.18599993 1909020
0.79908186 0.016457684 0.18699998 1909020
0.79908186 0.014947288 0.18699998 1909020
0.79875475 0.013546862 0.18799996 2040606
0.79875475 0.01203908 0.18799996 1974813
0.79875475 0.010531299 0.18799996 1909020
0.79875475 0.0090235174 0.18799996 1974813
0.79875475 0.0075157359 0.18799996 2040606
0.79875475 0.0060079545 0.18799996 2040606
0.79875475 0.0045001656 0.18799996 2040606
0.79875475 0.0029923841 0.18799996 1974813
0.79875475 0.0014846027 0.18799996 1974813
0.79908186 -0.00015667081 0.18699998 1974813
0.79908186 -0.0016670674 0.18699998 1974813
0.79875475 -0.0030387491 0.18799996 1974813
0.79875475 -0.0045465305 0.18799996 1974813
0.79875475 -0.006054312 0.18799996 1974813
0.79875475 -0.0075620934 0.18799996 2040606
0.79875475 -0.0090698823 0.18799996 1974813
0.79908186 -0.01072944 0.18699998 2106397
0.79908186 -0.012239836 0.18699998 2106397
0.79908186 -0.013750233 0.18699998 2237983
0.79908186 -0.015260629 0.18699998 2237983
0.79908186 -0.016771019 0.18699998 2237983
0.79908186 -0.018281415 0.18699998 2106397
0.79908186 -0.019791812 0.18699998 2106397
0.79875475 -0.021132134 0.18799996 2106397
0.79875475 -0.022639915 0.18799996 2303776
0.79875475 -0.024147704 0.18799996 2238753
0.79875475 -0.025655486 0.18799996 2304546
0.79875475 -0.027163267 0.18799996 2172960
0.79875475 -0.028671049 0.18799996 2501157
0.79875475 -0.03017883 0.18799996 2369571
0.79875475 -0.031686619 0.18799996 2369571
0.79875475 -0.0331944 0.18799996 2435364
0.79875475 -0.034702182 0.18799996 2501157
0.79875475 -0.036209963 0.18799996 2435364
0.79875475 -0.037717752 0.18799996 2435364
0.79875475 -0.039225534 0.18799996 2435364
0.79875475 -0.040733315 0.18799996 2435364
0.79875475 -0.042241096 0.18799996 2566950
0.79875475 -0.043748878 0.18799996 2436134
0.79875475 -0.045256667 0.18799996 2435881
0.79875475 -0.046764448 0.18799996 2567467
0.79875475 -0.04827223 0.18799996 2370088
0.79842764 -0.049560301 0.18899995 2370088
0.79842764 -0.051065452 0.18899995 2435881
0.79842764 -0.052570619 0.18899995 2567467
0.79842764 -0.0540758 0.18899995 2435881
0.79842764 -0.055580966 0.18899995 2435881
0.79842764 -0.057086132 0.18899995 2567467
0.79842764 -0.058591299 0.18899995 2567467
0.79810047 -0.059858464 0.18999994 2567467
0.79810047 -0.061361022 0.18999994 2567467
0.79810047 -0.062863581 0.18999994 2764329
0.79810047 -0.064366139 0.18999994 2698536
0.79810047 -0.065868683 0.18999994 2698536
0.79810047 -0.067371257 0.18999994 2764329
0.79810047 -0.0688738 0.18999994 2764329
0.79810047 -0.070376359 0.18999994 2633513
0.79810047 -0.071878918 0.18999994 2567720
0.79810047 -0.073381461 0.18999994 2633513
0.79842764 -0.075148173 0.18899995 2764329
0.79842764 -0.076653339 0.18899995 2895662
0.79875475 -0.078427888 0.18799996 2961455
0.79875475 -0.079935662 0.18799996 3027248
0.79908186 -0.08171805 0.18699998 3422006
0.7991941 0.028121658 0.18199998 6316124
0.7991941 0.026598196 0.18199998 5263693
0.79886955 0.0251638 0.18299997 4078392
0.79854506 0.023734629 0.18399996 3223083
0.79822052 0.022310682 0.18499994 2171422
0.79757148 0.020988874 0.18699998 1974813
0.79724699 0.019577995 0.18799996 1974813
0.79724699 0.018070213 0.18799996 1974813
0.79692245 0.016667172 0.18899995 1974813
0.79724699 0.015054647 0.18799996 1974813
0.79692245 0.013656832 0.18899995 2171422
0.79692245 0.012151659 0.18899995 2105629
0.79692245 0.0106465 0.18899995 1974813
0.79692245 0.009141326 0.18899995 1974813
0.79692245 0.0076361597 0.18899995 2040606
0.79692245 0.0061309859 0.18899995 1974813
0.79692245 0.0046258196 0.18899995 2040606
0.79692245 0.0031206459 0.18899995 2040606
0.79692245 0.0016154796 0.18899995 2040606
0.79692245 0.00011030585 0.18899995 1974813
0.79692245 -0.0013948604 0.18899995 2040606
0.79692245 -0.0029000342 0.18899995 2040606
0.79692245 -0.0044052005 0.18899995 2040606
0.79692245 -0.0059103742 0.18899995 2106399
0.79692245 -0.0074155405 0.18899995 2040606
0.79692245 -0.0089207143 0.18899995 2040606
0.79692245 -0.010425881 0.18899995 2237983
0.79692245 -0.011931054 0.18899995 2303776
0.79692245 -0.013436221 0.18899995 2237983
0.79692245 -0.014941394 0.18899995 2303778
0.79724699 -0.01660879 0.18799996 2303778
0.79724699 -0.018116571 0.18799996 2237985
0.79724699 -0.019624352 0.18799996 2106399
0.79724699 -0.021132134 0.18799996 2106399
0.79692245 -0.022467233 0.18899995 2303776
0.79692245 -0.023972407 0.18899995 2304546
0.79692245 -0.025477573 0.18899995 2304546
0.79692245 -0.026982747 0.18899995 2369571
0.79692245 -0.028487913 0.18899995 2501157
0.79692245 -0.029993087 0.18899995 2435364
0.79692245 -0.031498253 0.18899995 2435364
0.79692245 -0.033003427 0.18899995 2501157
0.79724699 -0.034702182 0.18799996 2501157
0.79724699 -0.036209963 0.18799996 2501157
0.79724699 -0.037717752 0.18799996 2501157
0.79692245 -0.039024107 0.18899995 2501157
0.79692245 -0.040529273 0.18899995 2370341
0.79692245 -0.042034447 0.18899995 2436134
0.79692245 -0.043539613 0.18899995 2436134
0.79692245 -0.045044787 0.18899995 2567467
0.79692245 -0.046549954 0.18899995 2567467
0.79692245 -0.04805512 0.18899995 2370088
0.79659796 -0.049340568 0.18999994 2370088
0.79659796 -0.050843127 0.18999994 2370088
0.79659796 -0.052345686 0.18999994 2567467
0.79659796 -0.053848229 0.18999994 2435881
0.79659796 -0.055350788 0.18999994 2435881
0.79659796 -0.056853347 0.18999994 2567467
0.79659796 -0.058355905 0.18999994 2567720
0.79627341 -0.059620433 0.19099998 2567720
0.79627341 -0.061120383 0.19099998 2567467
0.79627341 -0.062620319 0.19099998 2633260
0.79627341 -0.06412027 0.19099998 2567467
0.79627341 -0.065620206 0.19099998 2698536
0.79627341 -0.067120157 0.19099998 2764329
0.79627341 -0.068620093 0.19099998 2698536
0.79627341 -0.070120029 0.19099998 2698536
0.79627341 -0.07161998 0.19099998 2698536
0.79627341 -0.073119916 0.19099998 2698536
0.79659796 -0.074884035 0.18999994 2698536
0.79659796 -0.076386578 0.18999994 2830122
0.79692245 -0.07815852 0.18899995 2830122
0.79692245 -0.079663672 0.18899995 2961708
0.79724699 -0.081443451 0.18799996 3487029
0.79757148 -0.083228432 0.18699998 4474175
0.79734874 0.028205495 0.18299997 5789778
0.79702681 0.026771098 0.18399996 5131848
0.79702681 0.025252864 0.18399996 3815990
0.79670489 0.023826305 0.18499994 3158060
0.79638302 0.022404972 0.18599993 2237215
0.79573917 0.021085776 0.18799996 2171422
0.79509538 0.01977703 0.18999994 1974813
0.79509538 0.018274471 0.18999994 1974813
0.79509538 0.016771916 0.18999994 1974813
0.79509538 0.015269358 0.18999994 2040606
0.79509538 0.013766803 0.18999994 2237215
0.79509538 0.012264244 0.18999994 2105629
0.79509538 0.010761693 0.18999994 2040606
0.79509538 0.0092591345 0.18999994 2040606
0.79509538 0.0077565759 0.18999994 2040606
0.79509538 0.0062540248 0.18999994 2040606
0.79509538 0.0047514662 0.18999994 2040606
0.79509538 0.0032489076 0.18999994 2106399
0.79509538 0.001746349 0.18999994 2040606
0.79509538 0.00024379045 0.18999994 2040606
0.79509538 -0.0012587607 0.18999994 2106399
0.79509538 -0.0027613193 0.18999994 2106399
0.79509538 -0.0042638779 0.18999994 2040606
0.79509538 -0.0057664365 0.18999994 2237985
0.79509538 -0.0072689876 0.18999994 2106399
0.79509538 -0.0087715462 0.18999994 2237983
0.79509538 -0.010274105 0.18999994 2303776
0.79541731 -0.011931054 0.18899995 2303776
0.79541731 -0.013436221 0.18899995 2237983
0.79541731 -0.014941394 0.18899995 2369571
0.79541731 -0.016446553 0.18899995 2369571
0.79541731 -0.017951727 0.18899995 2303778
0.79541731 -0.019456893 0.18899995 2303778
0.79541731 -0.020962067 0.18899995 2369571
0.79541731 -0.022467233 0.18899995 2238755
0.79541731 -0.023972407 0.18899995 2238755
0.79541731 -0.025477573 0.18899995 2370341
0.79509538 -0.026802219 0.18999994 2435364
0.79509538 -0.028304778 0.18999994 2501157
0.79509538 -0.029807337 0.18999994 2435364
0.79509538 -0.031309895 0.18999994 2566948
0.79509538 -0.032812446 0.18999994 2501155
0.79541731 -0.034508593 0.18899995 2566948
0.79541731 -0.036013767 0.18899995 2501157
0.79541731 -0.037518933 0.18899995 2698536
0.79541731 -0.039024107 0.18899995 2698536
0.79541731 -0.040529273 0.18899995 2370341
0.79541731 -0.042034447 0.18899995 2370341
0.79509538 -0.043330349 0.18999994 2567720
0.79509538 -0.0448329 0.18999994 2567467
0.79509538 -0.046335459 0.18999994 2567467
0.79509538 -0.047838017 0.18999994 2370088
0.79509538 -0.049340568 0.18999994 2435881
0.79477346 -0.050620772 0.19099998 2435881
0.79477346 -0.052120723 0.19099998 2435881
0.79477346 -0.053620659 0.19099998 2435881
0.79477346 -0.05512061 0.19099998 2435881
0.79477346 -0.056620546 0.19099998 2567467
0.79477346 -0.058120497 0.19099998 2567720
0.79445159 -0.059382431 0.19199997 2567720
0.79445159 -0.060879759 0.19199997 2567467
0.79445159 -0.062377088 0.19199997 2764076
0.79445159 -0.063874416 0.19199997 2698283
0.79445159 -0.065371744 0.19199997 2764076
0.79445159 -0.066869088 0.19199997 2698283
0.79445159 -0.068366416 0.19199997 2566697
0.79445159 -0.069863729 0.19199997 2566697
0.79445159 -0.071361072 0.19199997 2698283
0.79445159 -0.072858386 0.19199997 2698283
0.79445159 -0.074355729 0.19199997 2764076
0.79477346 -0.076119803 0.19099998 2764076
0.79477346 -0.077619754 0.19099998 2829869
0.79509538 -0.079391696 0.18999994 2895662
0.79541731 -0.081168853 0.18899995 3224627
0.79573917 -0.082951225 0.18799996 3750452
0.79550856 0.028289337 0.18399996 5592399
0.79518926 0.026857551 0.18499994 5000262
0.79487002 0.025430992 0.18599993 3684404
0.79455072 0.024009667 0.18699998 3223853
0.79423141 0.022593562 0.18799996 2237215
0.79359281 0.021279585 0.18999994 2237215
0.79327351 0.019876551 0.19099998 2040606
0.79327351 0.018376607 0.19099998 2040353
0.79327351 0.016876664 0.19099998 1974560
0.79327351 0.015376721 0.19099998 2106399
0.79327351 0.013876773 0.19099998 2040606
0.79327351 0.01237683 0.19099998 1974813
0.79327351 0.010876894 0.19099998 2040606
0.79327351 0.0093769506 0.19099998 2040606
0.79327351 0.0078770071 0.19099998 2040606
0.79327351 0.0063770637 0.19099998 2106399
0.79327351 0.0048771203 0.19099998 2106399
0.79327351 0.0033771768 0.19099998 2106399
0.79327351 0.0018772334 0.19099998 2040606
0.79327351 0.00037728995 0.19099998 2106399
0.79327351 -0.0011226535 0.19099998 2106399
0.79327351 -0.0026225969 0.19099998 2106399
0.79327351 -0.0041225404 0.19099998 2106399
0.79327351 -0.0056224838 0.19099998 2237985
0.79327351 -0.0071224272 0.19099998 2106399
0.79327351 -0.0086223707 0.19099998 2369571
0.79327351 -0.010122314 0.19099998 2303778
0.79359281 -0.011776663 0.18999994 2303778
0.79359281 -0.013279215 0.18999994 2303778
0.79359281 -0.014781773 0.18999994 2435362
0.79359281 -0.016284324 0.18999994 2369569
0.79359281 -0.017786883 0.18999994 2303776
0.79359281 -0.019289434 0.18999994 2303776
0.79359281 -0.020791993 0.18999994 2435362
0.79359281 -0.022294551 0.18999994 2238753
0.79359281 -0.02379711 0.18999994 2238753
0.79359281 -0.025299661 0.18999994 2304546
0.79359281 -0.026802219 0.18999994 2435364
0.79359281 -0.028304778 0.18999994 2501157
0.79359281 -0.029807337 0.18999994 2369571
0.79359281 -0.031309895 0.18999994 2435362
0.79359281 -0.032812446 0.18999994 2369569
0.79359281 -0.034315005 0.18999994 2501155
0.79359281 -0.035817564 0.18999994 2501155
0.79359281 -0.037320122 0.18999994 2566948
0.79359281 -0.038822673 0.18999994 2698534
0.79359281 -0.040325232 0.18999994 2370339
0.79359281 -0.04182779 0.18999994 2370339
0.79359281 -0.043330349 0.18999994 2436132
0.79327351 -0.044621013 0.19099998 2436134
0.79327351 -0.046120957 0.19099998 2436134
0.79327351 -0.0476209 0.19099998 2370341
0.79327351 -0.049120836 0.19099998 2370341
0.79295421 -0.050398447 0.19199997 2436134
0.79295421 -0.051895775 0.19199997 2370341
0.79295421 -0.053393103 0.19199997 2370341
0.79295421 -0.054890431 0.19199997 2436134
0.79295421 -0.05638776 0.19199997 2567720
0.79295421 -0.057885088 0.19199997 2567720
0.79263496 -0.059144415 0.19299996 2436134
0.79263496 -0.060639136 0.19299996 2436134
0.79263496 -0.062133856 0.19299996 2764329
0.79263496 -0.063628562 0.19299996 2698536
0.79263496 -0.065123282 0.19299996 2698536
0.79263496 -0.066618003 0.19299996 2698536
0.79263496 -0.068112724 0.19299996 2566950
0.79263496 -0.069607429 0.19299996 2566950
0.79263496 -0.07110215 0.19299996 2698536
0.79263496 -0.072596855 0.19299996 2501157
0.79263496 -0.074091591 0.19299996 2566697
0.79295421 -0.075853057 0.19199997 2698283
0.79327351 -0.077619754 0.19099998 2698283
0.79327351 -0.07911969 0.19099998 2764076
0.79359281 -0.080894254 0.18999994 2961455
0.79391211 -0.082674019 0.18899995 3750454
0.79399037 0.028289337 0.18399996 5000262
0.79367369 0.026857551 0.18499994 4605504
0.79304028 0.025520064 0.18699998 3553075
0.79272366 0.024101343 0.18799996 3158317
0.79240698 0.022687852 0.18899995 2171422
0.79177356 0.021376494 0.19099998 2237215
0.79145694 0.019976068 0.19199997 2171422
0.79145694 0.018478736 0.19199997 2171169
0.79145694 0.016981408 0.19199997 2171169
0.79145694 0.015484076 0.19199997 2171169
0.79145694 0.013986744 0.19199997 2105629
0.79145694 0.012489416 0.19199997 2040606
0.79145694 0.010992087 0.19199997 2040606
0.79145694 0.0094947591 0.19199997 2040606
0.79145694 0.0079974309 0.19199997 2040606
0.79145694 0.0065000951 0.19199997 2040606
0.79145694 0.0050027668 0.19199997 2106399
0.79145694 0.0035054386 0.19199997 2040606
0.79145694 0.0020081103 0.19199997 2040606
0.79145694 0.00051077455 0.19199997 2106399
0.79145694 -0.00098655373 0.19199997 2106399
0.79145694 -0.002483882 0.19199997 2040606
0.79145694 -0.0039812177 0.19199997 2106399
0.79145694 -0.005478546 0.19199997 2106399
0.79145694 -0.0069758743 0.19199997 2106399
0.79145694 -0.00847321 0.19199997 2303778
0.79145694 -0.0099705383 0.19199997 2303778
0.79177356 -0.011622258 0.19099998 2303778
0.79177356 -0.013122201 0.19099998 2237985
0.79177356 -0.014622144 0.19099998 2435362
0.79177356 -0.01612208 0.19099998 2369569
0.79177356 -0.017622024 0.19099998 2303776
0.79177356 -0.019121967 0.19099998 2303776
0.79177356 -0.020621911 0.19099998 2303776
0.79177356 -0.022121854 0.19099998 2369569
0.79177356 -0.023621798 0.19099998 2172960
0.79177356 -0.025121741 0.19099998 2304548
0.79177356 -0.026621684 0.19099998 2435364
0.79177356 -0.028121628 0.19099998 2501157
0.79177356 -0.029621571 0.19099998 2369571
0.79177356 -0.031121515 0.19099998 2435362
0.79177356 -0.032621458 0.19099998 2303776
0.79177356 -0.034121402 0.19099998 2435362
0.79177356 -0.035621345 0.19099998 2435362
0.79177356 -0.037121288 0.19099998 2435362
0.79177356 -0.038621239 0.19099998 2566948
0.79177356 -0.040121183 0.19099998 2435362
0.79177356 -0.041621126 0.19099998 2435362
0.79177356 -0.04312107 0.19099998 2435362
0.79177356 -0.044621013 0.19099998 2501155
0.79177356 -0.046120957 0.19099998 2435362
0.79145694 -0.04740379 0.19199997 2435362
0.79145694 -0.048901118 0.19199997 2501155
0.79114026 -0.050176106 0.19299996 2435362
0.79114026 -0.051670827 0.19299996 2501155
0.79114026 -0.053165548 0.19299996 2435362
0.79114026 -0.054660268 0.19299996 2501157
0.79114026 -0.056154974 0.19299996 2501157
0.79082358 -0.057414301 0.19399995 2436134
0.79082358 -0.058906399 0.19399995 2436134
0.7905069 -0.060157888 0.19499993 2436134
0.7905069 -0.061647378 0.19499993 2698536
0.7905069 -0.063136868 0.19499993 2698536
0.7905069 -0.064626358 0.19499993 2566950
0.7905069 -0.066115849 0.19499993 2566950
0.7905069 -0.067605339 0.19499993 2501157
0.7905069 -0.069094814 0.19499993 2566950
0.7905069 -0.07058432 0.19499993 2501157
0.7905069 -0.07207381 0.19499993 2501157
0.7905069 -0.0735633 0.19499993 2566950
0.79082358 -0.075319536 0.19399995 2566697
0.79114026 -0.077081017 0.19299996 2698283
0.79145694 -0.078847714 0.19199997 2698283
0.79177356 -0.080619641 0.19099998 2829869
0.7920903 -0.082396813 0.18999994 3487282
0.79215801 0.028373174 0.18499994 4868676
0.79184401 0.026944 0.18599993 4473918
0.79121584 0.025609128 0.18799996 3618868
0.79090178 0.024193022 0.18899995 2566180
0.79058772 0.022782143 0.18999994 2171422
0.78995955 0.0214734 0.19199997 2171422
0.78964549 0.020075586 0.19299996 2171169
0.78964549 0.018580869 0.19299996 2171422
0.78964549 0.017086152 0.19299996 2171422
0.78964549 0.015591431 0.19299996 2237215
0.78964549 0.014096715 0.19299996 2105629
0.78964549 0.012602001 0.19299996 2040606
0.78964549 0.011107288 0.19299996 2040606
0.78964549 0.0096125677 0.19299996 1974813
0.78964549 0.0081178471 0.19299996 2040606
0.78964549 0.006623134 0.19299996 2040606
0.78964549 0.0051284134 0.19299996 2040606
0.78964549 0.0036337003 0.19299996 2040606
0.78964549 0.0021389797 0.19299996 2040606
0.78964549 0.00064426661 0.19299996 2040606
0.78964549 -0.00085045397 0.19299996 2040606
0.78964549 -0.0023451746 0.19299996 2040606
0.78964549 -0.0038398877 0.19299996 2040606
0.78964549 -0.0053346083 0.19299996 2040606
0.78964549 -0.0068293214 0.19299996 2106399
0.78964549 -0.008324042 0.19299996 2237985
0.78995955 -0.0099705383 0.19199997 2237985
0.78995955 -0.011467867 0.19199997 2106399
0.78995955 -0.012965195 0.19199997 2106399
0.78995955 -0.014462531 0.19199997 2369569
0.78995955 -0.015959851 0.19199997 2106397
0.78995955 -0.01745718 0.19199997 2106397
0.78995955 -0.018954508 0.19199997 2237983
0.78995955 -0.020451844 0.19199997 2237983
0.78995955 -0.021949172 0.19199997 2303778
0.79027367 -0.023621798 0.19099998 2303778
0.79027367 -0.025121741 0.19099998 2369571
0.79027367 -0.026621684 0.19099998 2369571
0.79027367 -0.028121628 0.19099998 2369571
0.79027367 -0.029621571 0.19099998 2303778
0.79027367 -0.031121515 0.19099998 2369571
0.79027367 -0.032621458 0.19099998 2303778
0.79027367 -0.034121402 0.19099998 2369569
0.79027367 -0.035621345 0.19099998 2303776
0.79027367 -0.037121288 0.19099998 2435362
0.78995955 -0.038419805 0.19199997 2501155
0.78995955 -0.039917141 0.19199997 2435362
0.78995955 -0.041414469 0.19199997 2369569
0.78995955 -0.042911798 0.19199997 2435362
0.78995955 -0.044409126 0.19199997 2435362
0.78995955 -0.045906462 0.19199997 2435362
0.78964549 -0.04718668 0.19299996 2435362
0.78964549 -0.048681401 0.19299996 2501155
0.78964549 -0.050176106 0.19299996 2369569
0.78933144 -0.051445879 0.19399995 2435362
0.78901738 -0.052710421 0.19499993 2435362
0.78901738 -0.054199912 0.19499993 2501157
0.78901738 -0.055689402 0.19499993 2566950
0.78901738 -0.057178892 0.19499993 2566950
0.78870332 -0.058430366 0.19599998 2436134
0.78870332 -0.059917249 0.19599998 2436134
0.78870332 -0.061404116 0.19599998 2698536
0.78870332 -0.062890999 0.19599998 2566950
0.78870332 -0.064377882 0.19599998 2566950
0.78870332 -0.065864764 0.19599998 2566950
0.78870332 -0.067351632 0.19599998 2501157
0.78870332 -0.068838499 0.19599998 2501157
0.78870332 -0.070325382 0.19599998 2566950
0.78870332 -0.071812265 0.19599998 2566950
0.78870332 -0.073299147 0.19599998 2566950
0.78901738 -0.07505279 0.19499993 2566697
0.78901738 -0.076542281 0.19499993 2698283
0.78964549 -0.078575738 0.19299996 2566697
0.78995955 -0.080345057 0.19199997 2829869
0.79027367 -0.082119577 0.19099998 4342334
0.79064244 0.028373174 0.18499994 4539711
0.79001951 0.027030457 0.18699998 4473148
0.78970808 0.025609128 0.18799996 3618868
0.78908515 0.024284698 0.18999994 2631973
0.78877372 0.022876438 0.19099998 2171422
0.78815079 0.021570303 0.19299996 2171422
0.78783935 0.020175103 0.19399995 2105629
0.78752792 0.018785127 0.19499993 2237215
0.78752792 0.017295636 0.19499993 2105629
0.78783935 0.015698791 0.19399995 2171422
0.78783935 0.014206685 0.19399995 2039836
0.78815079 0.012602001 0.19299996 2105629
0.78815079 0.011107288 0.19299996 2040353
0.78815079 0.0096125677 0.19299996 1909020
0.78815079 0.0081178471 0.19299996 1974813
0.78815079 0.006623134 0.19299996 1974813
0.78815079 0.0051284134 0.19299996 2040606
0.78815079 0.0036337003 0.19299996 2040606
0.78815079 0.0021389797 0.19299996 1974813
0.78783935 0.00077775121 0.19399995 1974813
0.78783935 -0.00071435422 0.19399995 1974813
0.78783935 -0.0022064596 0.19399995 1974813
0.78783935 -0.0036985651 0.19399995 2040606
0.78783935 -0.005190663 0.19399995 2040606
0.78783935 -0.0066827685 0.19399995 2040606
0.78815079 -0.008324042 0.19299996 2106399
0.78815079 -0.0098187551 0.19299996 2106399
0.78815079 -0.011313476 0.19299996 2106399
0.78815079 -0.012808196 0.19299996 2106399
0.78815079 -0.014302909 0.19299996 2303776
0.78815079 -0.015797623 0.19299996 2106397
0.78815079 -0.017292336 0.19299996 2106397
0.78846228 -0.018954508 0.19199997 2237983
0.78846228 -0.020451844 0.19199997 2303776
0.78846228 -0.021949172 0.19199997 2303776
0.78846228 -0.0234465 0.19199997 2303776
0.78846228 -0.024943836 0.19199997 2369571
0.78846228 -0.026441164 0.19199997 2369571
0.78846228 -0.027938493 0.19199997 2369571
0.78846228 -0.029435828 0.19199997 2303778
0.78846228 -0.030933157 0.19199997 2369571
0.78846228 -0.032430485 0.19199997 2237985
0.78846228 -0.033927813 0.19199997 2369569
0.78846228 -0.035425149 0.19199997 2303776
0.78846228 -0.036922477 0.19199997 2435362
0.78846228 -0.038419805 0.19199997 2501155
0.78846228 -0.039917141 0.19199997 2369569
0.78846228 -0.041414469 0.19199997 2369569
0.78815079 -0.042702533 0.19299996 2435362
0.78815079 -0.044197246 0.19299996 2435362
0.78815079 -0.045691967 0.19299996 2435362
0.78815079 -0.04718668 0.19299996 2435362
0.78783935 -0.048461683 0.19399995 2501155
0.78752792 -0.049731441 0.19499993 2435362
0.78752792 -0.051220931 0.19499993 2501155
0.78721642 -0.052482851 0.19599998 2501155
0.78721642 -0.053969733 0.19599998 2501157
0.78721642 -0.055456616 0.19599998 2566950
0.78690499 -0.05670809 0.19699997 2566950
0.78690499 -0.05819235 0.19699997 2436134
0.78690499 -0.059676625 0.19699997 2370341
0.78690499 -0.061160885 0.19699997 2698536
0.78690499 -0.062645145 0.19699997 2566950
0.78690499 -0.06412942 0.19699997 2566950
0.78659356 -0.06536261 0.19799995 2566950
0.78659356 -0.066844247 0.19799995 2501157
0.78659356 -0.0683259 0.19799995 2501157
0.78690499 -0.070066474 0.19699997 2566950
0.78690499 -0.071550734 0.19699997 2566950
0.78690499 -0.073034994 0.19699997 2698536
0.78690499 -0.074519254 0.19699997 2698536
0.78752792 -0.076542281 0.19499993 2698536
0.78783935 -0.078303747 0.19399995 2698536
0.78815079 -0.080070458 0.19299996 2830122
0.78877372 -0.082119577 0.19099998 3355443
0.78908515 -0.083899371 0.18999994 6645598
0.78881794 0.028457012 0.18599993 4144437
0.78820026 0.02711691 0.18799996 4473148
0.78789145 0.025698192 0.18899995 3618866
0.78758264 0.024284698 0.18999994 2631973
0.78696489 0.022970729 0.19199997 2171422
0.78665608 0.021570303 0.19299996 2171422
0.7860384 0.020274621 0.19499993 2105629
0.7860384 0.018785127 0.19499993 2237215
0.7860384 0.017295636 0.19499993 2105629
0.7860384 0.015806146 0.19499993 2171422
0.7860384 0.014316656 0.19499993 2039836
0.7860384 0.012827165 0.19499993 2105376
0.7860384 0.011337675 0.19499993 2040353
0.7860384 0.0098481849 0.19499993 1909020
0.7860384 0.0083586946 0.19499993 1974813
0.7860384 0.0068692043 0.19499993 1909020
0.7860384 0.0053797141 0.19499993 2040606
0.7860384 0.0038902238 0.19499993 1974813
0.7860384 0.0024007261 0.19499993 1974813
0.7860384 0.00091123581 0.19499993 1974813
0.7860384 -0.00057825446 0.19499993 1974813
0.7860384 -0.0020677447 0.19499993 1974813
0.7860384 -0.003557235 0.19499993 2040606
0.7860384 -0.0050467253 0.19499993 2106399
0.7860384 -0.0065362155 0.19499993 2040606
0.7860384 -0.0080257058 0.19499993 2106399
0.7860384 -0.0095151961 0.19499993 2106399
0.78634727 -0.011159085 0.19399995 2106399
0.78634727 -0.01265119 0.19399995 2106399
0.78634727 -0.014143288 0.19399995 2303778
0.78665608 -0.015797623 0.19299996 2106399
0.78665608 -0.017292336 0.19299996 2040606
0.78665608 -0.018787056 0.19299996 2237983
0.78665608 -0.020281769 0.19299996 2369569
0.78665608 -0.02177649 0.19299996 2303776
0.78665608 -0.023271203 0.19299996 2303776
0.78665608 -0.024765924 0.19299996 2369569
0.78665608 -0.026260637 0.19299996 2369569
0.78696489 -0.027938493 0.19199997 2303776
0.78696489 -0.029435828 0.19199997 2303776
0.78696489 -0.030933157 0.19199997 2237983
0.78696489 -0.032430485 0.19199997 2237983
0.78696489 -0.033927813 0.19199997 2369569
0.78696489 -0.035425149 0.19199997 2237983
0.78696489 -0.036922477 0.19199997 2369569
0.78665608 -0.038218379 0.19299996 2435362
0.78665608 -0.0397131 0.19299996 2435362
0.78665608 -0.041207813 0.19299996 2369569
0.78665608 -0.042702533 0.19299996 2435362
0.78634727 -0.043985367 0.19399995 2435362
0.7860384 -0.045262977 0.19499993 2369569
0.7860384 -0.046752468 0.19499993 2435362
0.7860384 -0.048241965 0.19499993 2501155
0.78572953 -0.049509101 0.19599998 2435362
0.78572953 -0.050995968 0.19599998 2566948
0.78542072 -0.052255295 0.19699997 2566950
0.78542072 -0.053739555 0.19699997 2501157
0.7851119 -0.054991044 0.19799995 2566950
0.7851119 -0.056472696 0.19799995 2566950
0.7851119 -0.057954349 0.19799995 2566950
0.78480303 -0.059195362 0.19899994 2370341
0.78480303 -0.060674407 0.19899994 2698536
0.78480303 -0.062153451 0.19899994 2697766
0.78480303 -0.063632481 0.19899994 2697766
0.78480303 -0.065111525 0.19899994 2566950
0.78480303 -0.066590555 0.19899994 2501157
0.78480303 -0.068069585 0.19899994 2501157
0.78480303 -0.069548644 0.19899994 2566950
0.78480303 -0.071027674 0.19899994 2566950
0.7851119 -0.072770856 0.19799995 2698536
0.7851119 -0.074252509 0.19799995 2698536
0.78572953 -0.076272897 0.19599998 2698536
0.7860384 -0.078031771 0.19499993 2698536
0.78665608 -0.080070458 0.19299996 2830122
0.78696489 -0.08184237 0.19199997 3356466
0.78758264 -0.083899371 0.18999994 5066566
0.787305 0.028457012 0.18599993 4012851
0.7866925 0.02711691 0.18799996 4013621
0.78608006 0.025787257 0.18999994 3618866
0.78577381 0.024376381 0.19099998 2829352
0.78546762 0.022970729 0.19199997 2171422
0.78454894 0.021764111 0.19499993 2039836
0.78424269 0.020374142 0.19599998 2105629
0.78424269 0.018887263 0.19599998 2171422
0.78424269 0.017400388 0.19599998 2039836
0.78424269 0.015913509 0.19599998 2105629
0.78424269 0.014426634 0.19599998 2039836
0.78424269 0.012939751 0.19599998 1909020
0.78454894 0.011337675 0.19499993 1974813
0.78454894 0.0098481849 0.19499993 1909020
0.78454894 0.0083586946 0.19499993 1909020
0.78454894 0.0068692043 0.19499993 1909020
0.78454894 0.0053797141 0.19499993 1974813
0.78454894 0.0038902238 0.19499993 1974813
0.78454894 0.0024007261 0.19499993 1974813
0.78454894 0.00091123581 0.19499993 1974813
0.78424269 -0.00044214725 0.19599998 1974813
0.78424269 -0.0019290224 0.19599998 1974813
0.78424269 -0.0034158975 0.19599998 2040606
0.78424269 -0.0049027801 0.19599998 2106399
0.78424269 -0.0063896552 0.19599998 2040606
0.78424269 -0.0078765303 0.19599998 2040606
0.78454894 -0.0095151961 0.19499993 2106399
0.78454894 -0.011004694 0.19499993 2106399
0.78454894 -0.012494184 0.19499993 2106399
0.78454894 -0.013983674 0.19499993 2237985
0.78454894 -0.015473157 0.19499993 2106399
0.78454894 -0.016962647 0.19499993 2040606
0.78454894 -0.018452138 0.19499993 2237983
0.78485513 -0.020111702 0.19399995 2303776
0.78485513 -0.021603808 0.19399995 2303776
0.78485513 -0.023095906 0.19399995 2303776
0.78516138 -0.024765924 0.19299996 2303776
0.78516138 -0.026260637 0.19299996 2303776
0.78516138 -0.027755357 0.19299996 2303776
0.78516138 -0.029250078 0.19299996 2303776
0.78516138 -0.030744791 0.19299996 2237983
0.78516138 -0.032239512 0.19299996 2237983
0.78516138 -0.033734225 0.19299996 2369569
0.78516138 -0.035228945 0.19299996 2237983
0.78516138 -0.036723658 0.19299996 2369569
0.78516138 -0.038218379 0.19299996 2435362
0.78516138 -0.0397131 0.19299996 2435362
0.78485513 -0.041001163 0.19399995 2369569
0.78454894 -0.042283997 0.19499993 2435362
0.78454894 -0.043773487 0.19499993 2435362
0.78454894 -0.045262977 0.19499993 2369569
0.78424269 -0.04653535 0.19599998 2435362
0.78424269 -0.048022233 0.19599998 2501155
0.7839365 -0.04928676 0.19699997 2435362
0.7839365 -0.050771035 0.19699997 2566948
0.78363025 -0.05202774 0.19799995 2501157
0.78363025 -0.053509392 0.19799995 2566950
0.783324 -0.054758258 0.19899994 2566950
0.783324 -0.056237288 0.19899994 2566950
0.78301775 -0.057478301 0.19999999 2566950
0.78301775 -0.058954723 0.19999999 2436134
0.78301775 -0.06043116 0.19999999 2698536
0.78301775 -0.061907582 0.19999999 2697766
0.78301775 -0.063384004 0.19999999 2697766
0.78301775 -0.064860441 0.19999999 2631973
0.78301775 -0.066336863 0.19999999 2631973
0.78301775 -0.06781327 0.19999999 2631973
0.78301775 -0.069289707 0.19999999 2501157
0.78301775 -0.070766129 0.19999999 2566950
0.783324 -0.072506718 0.19899994 2698536
0.783324 -0.073985748 0.19899994 2698536
0.7839365 -0.076003529 0.19699997 2698536
0.78424269 -0.077759765 0.19599998 2764329
0.78454894 -0.079521261 0.19499993 2830122
0.78546762 -0.08184237 0.19199997 3159087
0.78577381 -0.083619528 0.19099998 3355439
0.78579193 0.028457012 0.18599993 3815472
0.78488111 0.027203362 0.18899995 3881781
0.78457749 0.025787257 0.18999994 3553073
0.78397024 0.024468061 0.19199997 2829352
0.78366661 0.023065019 0.19299996 2237215
0.78305942 0.021764111 0.19499993 2105372
0.78275579 0.020374142 0.19599998 2039836
0.78245223 0.018989395 0.19699997 1909020
0.78245223 0.017505128 0.19699997 1909020
0.78245223 0.016020864 0.19699997 1909020
0.78245223 0.014536601 0.19699997 1974043
0.78245223 0.013052337 0.19699997 2039836
0.78275579 0.011452876 0.19599998 1909020
0.78275579 0.0099660009 0.19599998 1909020
0.78275579 0.0084791258 0.19599998 1974813
0.78275579 0.0069922432 0.19599998 1909020
0.78275579 0.0055053681 0.19599998 1974813
0.78275579 0.004018493 0.19599998 1974813
0.78275579 0.0025316104 0.19599998 1974813
0.78275579 0.0010447353 0.19599998 1974813
0.78275579 -0.00044214725 0.19599998 1974813
0.78275579 -0.0019290224 0.19599998 1974813
0.78245223 -0.0032745749 0.19699997 2040606
0.78245223 -0.0047588348 0.19699997 2106399
0.78245223 -0.0062431023 0.19699997 2040606
0.78275579 -0.0078765303 0.19599998 2040606
0.78275579 -0.0093634129 0.19599998 2106399
0.78275579 -0.010850288 0.19599998 2106399
0.78275579 -0.012337171 0.19599998 2106399
0.78275579 -0.013824046 0.19599998 2237985
0.78275579 -0.015310913 0.19599998 2106399
0.78305942 -0.016962647 0.19499993 2040606
0.78305942 -0.018452138 0.19499993 2106397
0.78305942 -0.019941628 0.19499993 2237983
0.78305942 -0.021431118 0.19499993 2303776
0.78305942 -0.022920609 0.19499993 2303776
0.78336304 -0.024588011 0.19399995 2303776
0.78336304 -0.026080117 0.19399995 2303776
0.78366661 -0.027755357 0.19299996 2303776
0.78366661 -0.029250078 0.19299996 2237983
0.78366661 -0.030744791 0.19299996 2237983
0.78366661 -0.032239512 0.19299996 2303776
0.78366661 -0.033734225 0.19299996 2303776
0.78366661 -0.035228945 0.19299996 2237983
0.78336304 -0.036524847 0.19399995 2369569
0.78336304 -0.038016953 0.19399995 2566178
0.78336304 -0.039509058 0.19399995 2566178
0.78305942 -0.040794507 0.19499993 2566178
0.78305942 -0.042283997 0.19499993 2566178
0.78275579 -0.043561593 0.19599998 2566178
0.78275579 -0.045048475 0.19599998 2566178
0.78245223 -0.04631824 0.19699997 2501155
0.78245223 -0.047802508 0.19699997 2501155
0.7821486 -0.049064435 0.19799995 2501155
0.7821486 -0.050546087 0.19799995 2566950
0.78184497 -0.051800169 0.19899994 2566950
0.78184497 -0.053279214 0.19899994 2566950
0.78154135 -0.054525457 0.19999999 2566950
0.78154135 -0.056001879 0.19999999 2501157
0.78123772 -0.0572403 0.20099998 2566950
0.78123772 -0.058714099 0.20099998 2566950
0.78123772 -0.060187913 0.20099998 2698536
0.78123772 -0.061661728 0.20099998 2566950
0.78123772 -0.063135542 0.20099998 2698536
0.78123772 -0.064609356 0.20099998 2566950
0.78123772 -0.06608317 0.20099998 2566697
0.78123772 -0.06755697 0.20099998 2566697
0.78123772 -0.069030784 0.20099998 2566950
0.78154135 -0.070766129 0.19999999 2566950
0.78154135 -0.072242551 0.19999999 2566950
0.78154135 -0.073718973 0.19999999 2566950
0.7821486 -0.075734161 0.19799995 2698536
0.78245223 -0.077487789 0.19699997 2830122
0.78305942 -0.079521261 0.19499993 2764329
0.78366661 -0.081565164 0.19299996 3027501
0.78427386 -0.083619528 0.19099998 3815990
0.78427893 0.028457012 0.18599993 3749679
0.78337592 0.027203362 0.18899995 3816242
0.78277391 0.025876325 0.19099998 3487280
0.78247297 0.024468061 0.19199997 2960938
0.78187096 0.02315931 0.19399995 2237215
0.78126895 0.02186102 0.19599998 2039836
0.78096795 0.020473659 0.19699997 1974043
0.78096795 0.018989395 0.19699997 1843227
0.78096795 0.017505128 0.19699997 1843227
0.78096795 0.016020864 0.19699997 1909020
0.78096795 0.014536601 0.19699997 1974043
0.78096795 0.013052337 0.19699997 1909020
0.78096795 0.011568077 0.19699997 1909020
0.78096795 0.010083809 0.19699997 1909020
0.78096795 0.0085995421 0.19699997 1974813
0.78096795 0.0071152821 0.19699997 1909020
0.78096795 0.0056310147 0.19699997 1974813
0.78096795 0.0041467473 0.19699997 1974813
0.78096795 0.0026624873 0.19699997 2040606
0.78126895 0.0010447353 0.19599998 2040606
0.78096795 -0.0003060475 0.19699997 1974813
0.78096795 -0.0017903075 0.19699997 1843997
0.78096795 -0.0032745749 0.19699997 1778204
0.78096795 -0.0047588348 0.19699997 2106399
0.78096795 -0.0062431023 0.19699997 2040606
0.78096795 -0.0077273697 0.19699997 2040606
0.78096795 -0.0092116296 0.19699997 2106399
0.78096795 -0.010695897 0.19699997 2040606
0.78096795 -0.012180164 0.19699997 2106399
0.78126895 -0.013824046 0.19599998 2237985
0.78126895 -0.015310913 0.19599998 2106399
0.78126895 -0.016797796 0.19599998 2106399
0.78126895 -0.018284671 0.19599998 2237215
0.78156996 -0.019941628 0.19499993 2368801
0.78156996 -0.021431118 0.19499993 2368801
0.78156996 -0.022920609 0.19499993 2303776
0.78156996 -0.024410106 0.19499993 2303776
0.78156996 -0.025899597 0.19499993 2303776
0.78187096 -0.027572222 0.19399995 2369569
0.78187096 -0.029064327 0.19399995 2303776
0.78187096 -0.030556433 0.19399995 2237983
0.78187096 -0.032048531 0.19399995 2303778
0.78187096 -0.033540636 0.19399995 2566178
0.78187096 -0.035032742 0.19399995 2566178
0.78156996 -0.036326028 0.19499993 2566178
0.78156996 -0.037815526 0.19499993 2501155
0.78156996 -0.039305016 0.19499993 2631971
0.78156996 -0.040794507 0.19499993 2631971
0.78126895 -0.042074718 0.19599998 2631971
0.78126895 -0.043561593 0.19599998 2566178
0.78096795 -0.044833981 0.19699997 2566178
0.78096795 -0.04631824 0.19699997 2501157
0.78066695 -0.04758279 0.19799995 2501157
0.78036594 -0.048842095 0.19899994 2501157
0.78036594 -0.050321139 0.19899994 2698536
0.78006494 -0.051572599 0.19999999 2566950
0.78006494 -0.053049035 0.19999999 2566950
0.78006494 -0.054525457 0.19999999 2566950
0.77976394 -0.055766486 0.20099998 2566950
0.77976394 -0.0572403 0.20099998 2698536
0.77946293 -0.058473475 0.20199996 2566950
0.77946293 -0.059944682 0.20199996 2698536
0.77946293 -0.061415873 0.20199996 2566950
0.77946293 -0.06288708 0.20199996 2698536
0.77946293 -0.064358287 0.20199996 2698283
0.77946293 -0.065829478 0.20199996 2566697
0.77946293 -0.06730067 0.20199996 2566697
0.77976394 -0.069030784 0.20099998 2566697
0.77976394 -0.070504598 0.20099998 2566697
0.77976394 -0.071978413 0.20099998 2566950
0.78006494 -0.073718973 0.19999999 2566950
0.78036594 -0.075464793 0.19899994 2698536
0.78096795 -0.077487789 0.19699997 2830122
0.78126895 -0.079246663 0.19599998 2830122
0.78217196 -0.081565164 0.19299996 3159087
0.78247297 -0.083339714 0.19199997 3618611
0.78246754 0.028540853 0.18699998 3683886
0.78187072 0.027203362 0.18899995 3815472
0.78127396 0.025876325 0.19099998 3421487
0.7806772 0.024559736 0.19299996 2960938
0.78037882 0.02315931 0.19399995 2368801
0.77978206 0.02186102 0.19599998 2105629
0.77948368 0.020473659 0.19699997 2105629
0.7791853 0.019091524 0.19799995 2039836
0.7791853 0.017609872 0.19799995 2039836
0.7791853 0.01612822 0.19799995 2105629
0.7791853 0.014646567 0.19799995 2105629
0.7791853 0.013164915 0.19799995 2171422
0.7791853 0.01168327 0.19799995 1974813
0.7791853 0.010201618 0.19799995 2040606
0.7791853 0.0087199658 0.19799995 2106399
0.7791853 0.0072383136 0.19799995 2106399
