# .PCD v0.7 - Point Cloud Data file format
VERSION 0.7
FIELDS x y z rgb
SIZE 4 4 4 4
TYPE F F F U
COUNT 1 1 1 1
WIDTH 1119
HEIGHT 1
VIEWPOINT 0 0 0 1 0 0 0
POINTS 1119
DATA ascii
0.78687263 -0.052831538 0.16699994 2369569
0.78716838 -0.054613911 0.16599995 2566178
0.7877599 -0.056623839 0.16399997 2566178
0.78805572 -0.05841931 0.16299993 2697764
0.78864729 -0.060447536 0.16099995 2631971
0.78894305 -0.062256046 0.15999997 2631971
0.78923881 -0.064069785 0.15899998 2434592
0.78953457 -0.065888755 0.15799993 2434592
0.79012614 -0.067950957 0.15599996 2303778
0.7904219 -0.06978298 0.15499997 2501157
0.7904219 -0.071377002 0.15499997 2566697
0.79071766 -0.073216878 0.15399998 2960938
0.79071766 -0.074813507 0.15399998 3092267
0.79071766 -0.076410137 0.15399998 3092267
0.79101348 -0.078260459 0.15299994 3158060
0.79130924 -0.080115996 0.15199995 3092267
0.79130924 -0.081717871 0.15199995 3092014
0.79130924 -0.083319716 0.15199995 3355186
0.79130924 -0.084921576 0.15199995 3749174
0.79130924 -0.086523421 0.15199995 3749174
0.79130924 -0.088125296 0.15199995 4078139
0.79130924 -0.089727141 0.15199995 4867655
0.7900005 0.031940509 0.15099996 5327428
0.78970736 0.030412041 0.15199995 3879982
0.78970736 0.028810184 0.15199995 3617841
0.78970736 0.027208328 0.15199995 3486002
0.78970736 0.025606476 0.15199995 3157807
0.78941417 0.024091072 0.15299994 3157807
0.78912103 0.022580896 0.15399998 3157807
0.78912103 0.020984266 0.15399998 3026221
0.78912103 0.019387636 0.15399998 3092014
0.78912103 0.017791007 0.15399998 2960428
0.7888279 0.016293894 0.15499997 3026221
0.7888279 0.014699876 0.15499997 3092014
0.7888279 0.013105862 0.15499997 3026478
0.7885347 0.011619203 0.15599996 3092271
0.78824157 0.010137767 0.15699995 3355443
0.78824157 0.008548975 0.15699995 3289650
0.78794837 0.0070753843 0.15799993 3092271
0.78794837 0.0054892078 0.15799993 2961455
0.78765523 0.0040234625 0.15899998 3027248
0.7873621 0.0025629327 0.15999997 3158834
0.7870689 0.0011076257 0.16099995 3159604
0.7870689 -0.00047071278 0.16099995 3159604
0.78648257 -0.0017872974 0.16299993 2830641
0.78648257 -0.003360413 0.16299993 2830641
0.78618944 -0.0047974139 0.16399997 2764848
0.7858963 -0.0062291995 0.16499996 2830641
0.78560311 -0.0076557621 0.16599995 2830641
0.78530997 -0.0090770945 0.16699994 2896434
0.78530997 -0.010639749 0.16699994 2896434
0.78501678 -0.012053236 0.16799998 3028020
0.78501678 -0.013613284 0.16799998 3028020
0.78472364 -0.015018933 0.16899997 2896434
0.78472364 -0.016576365 0.16899997 2633260
0.78472364 -0.018133797 0.16899997 2633260
0.78443044 -0.019528992 0.16999996 2764076
0.78443044 -0.021083809 0.16999996 2764076
0.78443044 -0.022638634 0.16999996 2764076
0.78443044 -0.024193451 0.16999996 2829869
0.78443044 -0.025748268 0.16999996 2895915
0.78443044 -0.027303092 0.16999996 3026731
0.78443044 -0.028857909 0.16999996 3026731
0.78443044 -0.030412726 0.16999996 2960938
0.78443044 -0.031967551 0.16999996 2960938
0.78443044 -0.033522367 0.16999996 2829352
0.78443044 -0.035077192 0.16999996 2829352
0.78443044 -0.036632009 0.16999996 2829352
0.78413731 -0.037993237 0.17099994 2829352
0.78443044 -0.03974165 0.16999996 2829352
0.78443044 -0.041296467 0.16999996 2697766
0.78443044 -0.042851284 0.16999996 2697766
0.78443044 -0.044406109 0.16999996 2500387
0.78443044 -0.045960926 0.16999996 2500387
0.78472364 -0.047725014 0.16899997 2303778
0.78501678 -0.049494319 0.16799998 2172962
0.78501678 -0.051054366 0.16799998 2369569
0.78530997 -0.052831538 0.16699994 2369569
0.78560311 -0.054613911 0.16599995 2500385
0.78618944 -0.056623839 0.16399997 2500385
0.78648257 -0.05841931 0.16299993 2631971
0.78677577 -0.060219981 0.16199994 2566178
0.7870689 -0.062025867 0.16099995 2566178
0.7873621 -0.063836999 0.15999997 2368799
0.78794837 -0.065888755 0.15799993 2368799
0.78824157 -0.06771294 0.15699995 2303778
0.7885347 -0.069542356 0.15599996 2303778
0.7888279 -0.071377002 0.15499997 2566697
0.78912103 -0.073216878 0.15399998 2829099
0.78912103 -0.074813507 0.15399998 2763302
0.78912103 -0.076410137 0.15399998 2894888
0.78941417 -0.078260459 0.15299994 2763302
0.78970736 -0.080115996 0.15199995 2829352
0.78970736 -0.081717871 0.15199995 2895145
0.78970736 -0.083319716 0.15199995 3026731
0.78970736 -0.084921576 0.15199995 3092014
0.78970736 -0.086523421 0.15199995 3355186
0.78970736 -0.088125296 0.15199995 3618358
0.78970736 -0.089727141 0.15199995 4209212
0.78970736 -0.091329001 0.15199995 8815227
0.78839606 0.031940509 0.15099996 4801854
0.78839606 0.030336041 0.15099996 3617580
0.78810549 0.028810184 0.15199995 3288876
0.78810549 0.027208328 0.15199995 3157807
0.78810549 0.025606476 0.15199995 3026221
0.78781497 0.024091072 0.15299994 3026221
0.78781497 0.022491828 0.15299994 3026221
0.7875244 0.020984266 0.15399998 2960428
0.7875244 0.019387636 0.15399998 3026221
0.7875244 0.017791007 0.15399998 2960685
0.78723383 0.016293894 0.15499997 3092271
0.78723383 0.014699876 0.15499997 3026478
0.78723383 0.013105862 0.15499997 3026478
0.78694332 0.011619203 0.15599996 3092271
0.7866528 0.010137767 0.15699995 3355443
0.7866528 0.008548975 0.15699995 3289650
0.78636223 0.0070753843 0.15799993 3092271
0.78607166 0.0056070238 0.15899998 2895662
0.78578115 0.0041438788 0.15999997 2961455
0.78578115 0.0025629327 0.15999997 2961455
0.78549057 0.0011076257 0.16099995 3028018
0.78520006 -0.00034245104 0.16199994 3028018
0.78490949 -0.0017872974 0.16299993 2764848
0.78461891 -0.0032269135 0.16399997 2830641
0.78461891 -0.0047974139 0.16399997 2764848
0.7843284 -0.0062291995 0.16499996 2764848
0.78403783 -0.0076557621 0.16599995 2830641
0.78374732 -0.0090770945 0.16699994 2896434
0.78374732 -0.010639749 0.16699994 2896434
0.78345674 -0.012053236 0.16799998 3028020
0.78345674 -0.013613284 0.16799998 3028020
0.78316617 -0.015018933 0.16899997 2830641
0.78316617 -0.016576365 0.16899997 2567467
0.78316617 -0.018133797 0.16899997 2764076
0.78287566 -0.019528992 0.16999996 2764076
0.78287566 -0.021083809 0.16999996 2764076
0.78287566 -0.022638634 0.16999996 2764076
0.78287566 -0.024193451 0.16999996 2829869
0.78287566 -0.025748268 0.16999996 2830122
0.78287566 -0.027303092 0.16999996 2830122
0.78287566 -0.028857909 0.16999996 3026731
0.78287566 -0.030412726 0.16999996 2829352
0.78287566 -0.031967551 0.16999996 2895145
0.78287566 -0.033522367 0.16999996 2829352
0.78287566 -0.035077192 0.16999996 2566950
0.78258514 -0.036441036 0.17099994 2566950
0.78258514 -0.037993237 0.17099994 2698536
0.78258514 -0.039545447 0.17099994 2566950
0.78258514 -0.041097648 0.17099994 2435364
0.78287566 -0.042851284 0.16999996 2501157
0.78287566 -0.044406109 0.16999996 2369571
0.78287566 -0.045960926 0.16999996 2303778
0.78287566 -0.047515742 0.16999996 2237985
0.78345674 -0.049494319 0.16799998 2303778
0.78345674 -0.051054366 0.16799998 2303776
0.78374732 -0.052831538 0.16699994 2303776
0.78403783 -0.054613911 0.16599995 2368799
0.78461891 -0.056623839 0.16399997 2500385
0.78490949 -0.05841931 0.16299993 2500385
0.78549057 -0.060447536 0.16099995 2368799
0.78578115 -0.062256046 0.15999997 2368799
0.78607166 -0.064069785 0.15899998 2237213
0.78636223 -0.065888755 0.15799993 2171420
0.7866528 -0.06771294 0.15699995 2237215
0.78694332 -0.069542356 0.15599996 2368801
0.78723383 -0.071377002 0.15499997 2565927
0.78723383 -0.072971024 0.15499997 2697513
0.7875244 -0.074813507 0.15399998 2631720
0.7875244 -0.076410137 0.15399998 2631720
0.78781497 -0.078260459 0.15299994 2565927
0.78810549 -0.080115996 0.15199995 2500904
0.78810549 -0.081717871 0.15199995 2500904
0.78810549 -0.083319716 0.15199995 2566697
0.78810549 -0.084921576 0.15199995 2566697
0.78810549 -0.086523421 0.15199995 2764076
0.78810549 -0.088125296 0.15199995 3618358
0.78810549 -0.089727141 0.15199995 4078139
0.78810549 -0.091329001 0.15199995 8814973
0.78707951 0.031867124 0.14999998 5196612
0.78679156 0.030336041 0.15099996 3617580
0.78679156 0.02873157 0.15099996 3223083
0.78679156 0.027127102 0.15099996 3092014
0.78650367 0.025606476 0.15199995 2960428
0.78650367 0.02400462 0.15199995 2960428
0.78621572 0.022491828 0.15299994 2960428
0.78592777 0.020984266 0.15399998 2894892
0.78592777 0.019387636 0.15399998 2960685
0.78592777 0.017791007 0.15399998 2960938
0.78563982 0.016293894 0.15499997 3092524
0.78563982 0.014699876 0.15499997 3026731
0.78563982 0.013105862 0.15499997 3026731
0.78535187 0.011619203 0.15599996 3026478
0.78506398 0.010137767 0.15699995 3158064
0.78506398 0.008548975 0.15699995 3158064
0.78477603 0.0070753843 0.15799993 3092271
0.78448808 0.0056070238 0.15899998 2961455
0.78420019 0.0041438788 0.15999997 2961455
0.78391224 0.0026859641 0.16099995 2895662
0.78391224 0.0011076257 0.16099995 2830639
0.7833364 -0.00021418929 0.16299993 2896432
0.7833364 -0.0017872974 0.16299993 2633775
0.78304839 -0.0032269135 0.16399997 2699568
0.7827605 -0.0046613142 0.16499996 2699055
0.78247255 -0.0060904846 0.16599995 2764848
0.78247255 -0.0076557621 0.16599995 2764848
0.7821846 -0.0090770945 0.16699994 2896434
0.7821846 -0.010639749 0.16699994 3028020
0.78189671 -0.012053236 0.16799998 3028020
0.78189671 -0.013613284 0.16799998 2896432
0.78189671 -0.015173323 0.16799998 2699053
0.78160876 -0.016576365 0.16899997 2566697
0.78160876 -0.018133797 0.16899997 2698283
0.78160876 -0.019691221 0.16899997 2698283
0.78160876 -0.021248654 0.16899997 2698283
0.78132081 -0.022638634 0.16999996 2698283
0.78132081 -0.024193451 0.16999996 2829869
0.78132081 -0.025748268 0.16999996 2764329
0.78132081 -0.027303092 0.16999996 2960938
0.78132081 -0.028857909 0.16999996 2895145
0.78132081 -0.030412726 0.16999996 2829352
0.78132081 -0.031967551 0.16999996 2764329
0.78132081 -0.033522367 0.16999996 2698536
0.78132081 -0.035077192 0.16999996 2566950
0.78132081 -0.036632009 0.16999996 2566950
0.78103292 -0.037993237 0.17099994 2566950
0.78103292 -0.039545447 0.17099994 2501157
0.78103292 -0.041097648 0.17099994 2435364
0.78132081 -0.042851284 0.16999996 2435364
0.78132081 -0.044406109 0.16999996 2369571
0.78132081 -0.045960926 0.16999996 2303778
0.78132081 -0.047515742 0.16999996 2237985
0.78189671 -0.049494319 0.16799998 2237985
0.78189671 -0.051054366 0.16799998 2303776
0.7821846 -0.052831538 0.16699994 2237983
0.78247255 -0.054613911 0.16599995 2368799
0.78304839 -0.056623839 0.16399997 2500385
0.7833364 -0.05841931 0.16299993 2434592
0.78391224 -0.060447536 0.16099995 2237213
0.78420019 -0.062256046 0.15999997 2171420
0.78448808 -0.064069785 0.15899998 2105627
0.78477603 -0.065888755 0.15799993 2105629
0.78506398 -0.06771294 0.15699995 2237215
0.78535187 -0.069542356 0.15599996 2237215
0.78563982 -0.071377002 0.15499997 2566180
0.78563982 -0.072971024 0.15499997 2631973
0.78592777 -0.074813507 0.15399998 2566180
0.78592777 -0.076410137 0.15399998 2566180
0.78592777 -0.078006767 0.15399998 2566180
0.78621572 -0.079859696 0.15299994 2501157
0.78650367 -0.081717871 0.15199995 2566950
0.78650367 -0.083319716 0.15199995 2501157
0.78650367 -0.084921576 0.15199995 2631973
0.78650367 -0.086523421 0.15199995 2829352
0.78650367 -0.088125296 0.15199995 3355443
0.78650367 -0.089727141 0.15199995 3618617
0.78650367 -0.091329001 0.15199995 8355707
0.78547245 0.033474207 0.14999998 11381152
0.78547245 0.031867124 0.14999998 4735807
0.78547245 0.030260041 0.14999998 3419947
0.78547245 0.028652959 0.14999998 3157290
0.78547245 0.027045876 0.14999998 2960428
0.78518713 0.025522638 0.15099996 2894635
0.7849018 0.02400462 0.15199995 2829099
0.7849018 0.022402763 0.15199995 2829099
0.78461647 0.020892583 0.15299994 2829099
0.78433114 0.019387636 0.15399998 2829099
0.78433114 0.017791007 0.15399998 2960938
0.78404582 0.016293894 0.15499997 3026731
0.78404582 0.014699876 0.15499997 3026731
0.78404582 0.013105862 0.15499997 2960938
0.78376049 0.011619203 0.15599996 3026731
0.78347516 0.010137767 0.15699995 3092271
0.78318989 0.0086615607 0.15799993 3291190
0.78318989 0.0070753843 0.15799993 3093811
0.78290451 0.0056070238 0.15899998 2830641
0.78261924 0.0041438788 0.15999997 2764848
0.78233391 0.0026859641 0.16099995 2699053
0.78233391 0.0011076257 0.16099995 2764846
0.78176326 -0.00021418929 0.16299993 2830639
0.78147793 -0.0016564205 0.16399997 2633775
0.78147793 -0.0032269135 0.16399997 2699568
0.7811926 -0.0046613142 0.16499996 2699055
0.78090727 -0.0060904846 0.16599995 2764848
0.78062201 -0.0075144321 0.16699994 2764848
0.78062201 -0.0090770945 0.16699994 2896434
0.78033662 -0.010493189 0.16799998 3028020
0.78033662 -0.012053236 0.16799998 2896434
0.78033662 -0.013613284 0.16799998 2764846
0.78033662 -0.015173323 0.16799998 2633260
0.78005135 -0.016576365 0.16899997 2566697
0.78005135 -0.018133797 0.16899997 2566697
0.78005135 -0.019691221 0.16899997 2566697
0.78005135 -0.021248654 0.16899997 2698283
0.78005135 -0.022806086 0.16899997 2698283
0.77976602 -0.024193451 0.16999996 2830122
0.77976602 -0.025748268 0.16999996 2764329
0.77976602 -0.027303092 0.16999996 2764329
0.77976602 -0.028857909 0.16999996 2895145
0.77976602 -0.030412726 0.16999996 2697766
0.77976602 -0.031967551 0.16999996 2698536
0.77976602 -0.033522367 0.16999996 2566950
0.77976602 -0.035077192 0.16999996 2566950
0.7794807 -0.036441036 0.17099994 2566950
0.7794807 -0.037993237 0.17099994 2566950
0.7794807 -0.039545447 0.17099994 2501157
0.7794807 -0.041097648 0.17099994 2435364
0.7794807 -0.042649858 0.17099994 2631973
0.77976602 -0.044406109 0.16999996 2566180
0.77976602 -0.045960926 0.16999996 2368801
0.77976602 -0.047515742 0.16999996 2237215
0.78033662 -0.049494319 0.16799998 2237215
0.78062201 -0.051268883 0.16699994 2237213
0.78090727 -0.053048648 0.16599995 2171420
0.7811926 -0.054833643 0.16499996 2237213
0.78147793 -0.056623839 0.16399997 2368799
0.78176326 -0.05841931 0.16299993 2368799
0.78233391 -0.060447536 0.16099995 2171420
0.78261924 -0.062256046 0.15999997 2039834
0.78290451 -0.064069785 0.15899998 2039834
0.78318989 -0.065888755 0.15799993 2039836
0.78347516 -0.06771294 0.15699995 2171422
0.78347516 -0.069301732 0.15699995 2237215
0.78376049 -0.07113377 0.15599996 2434594
0.78404582 -0.072971024 0.15499997 2566180
0.78404582 -0.074565031 0.15499997 2500387
0.78433114 -0.076410137 0.15399998 2500387
0.78433114 -0.078006767 0.15399998 2500387
0.78433114 -0.079603381 0.15399998 2369571
0.78461647 -0.081458949 0.15299994 2435364
0.7849018 -0.083319716 0.15199995 2435364
0.7849018 -0.084921576 0.15199995 2631973
0.7849018 -0.086523421 0.15199995 2697766
0.7849018 -0.088125296 0.15199995 3158064
0.7849018 -0.089727141 0.15199995 3421238
0.7849018 -0.091329001 0.15199995 7171437
0.78386533 0.033474207 0.14999998 11643552
0.78386533 0.031867124 0.14999998 4801600
0.78386533 0.030260041 0.14999998 3419947
0.78386533 0.028652959 0.14999998 2960681
0.78386533 0.027045876 0.14999998 2960428
0.78358263 0.025522638 0.15099996 2697513
0.78329992 0.02400462 0.15199995 2829099
0.78329992 0.022402763 0.15199995 2697513
0.78329992 0.020800907 0.15199995 2697513
0.78301722 0.019293342 0.15299994 2829099
0.78273451 0.017791007 0.15399998 2895145
0.78273451 0.016194377 0.15399998 3026731
0.78245181 0.014699876 0.15499997 2960938
0.78245181 0.013105862 0.15499997 3026731
0.7821691 0.011619203 0.15599996 3026478
0.7818864 0.010137767 0.15699995 3027248
0.78160369 0.0086615607 0.15799993 3488571
0.78160369 0.0070753843 0.15799993 3225399
0.78132099 0.0056070238 0.15899998 2765361
0.78103828 0.0041438788 0.15999997 2699568
0.78075558 0.0026859641 0.16099995 2699053
0.78047287 0.0012332723 0.16199994 2764846
0.78019017 -0.00021418929 0.16299993 2764846
0.77990746 -0.0016564205 0.16399997 2633775
0.77990746 -0.0032269135 0.16399997 2764848
0.7796247 -0.0046613142 0.16499996 2699055
0.77934206 -0.0060904846 0.16599995 2699055
0.77905929 -0.0075144321 0.16699994 2764848
0.77905929 -0.0090770945 0.16699994 2896434
0.77877659 -0.010493189 0.16799998 2830641
0.77877659 -0.012053236 0.16799998 2764848
0.77877659 -0.013613284 0.16799998 2633260
0.77877659 -0.015173323 0.16799998 2435881
0.77849388 -0.016576365 0.16899997 2370088
0.77849388 -0.018133797 0.16899997 2500904
0.77849388 -0.019691221 0.16899997 2566697
0.77849388 -0.021248654 0.16899997 2566697
0.77849388 -0.022806086 0.16899997 2698283
0.77849388 -0.024363525 0.16899997 2764329
0.77821118 -0.025748268 0.16999996 2698536
0.77821118 -0.027303092 0.16999996 2764329
0.77821118 -0.028857909 0.16999996 2764329
0.77821118 -0.030412726 0.16999996 2566950
0.77821118 -0.031967551 0.16999996 2566950
0.77821118 -0.033522367 0.16999996 2566950
0.77821118 -0.035077192 0.16999996 2501157
0.77792847 -0.036441036 0.17099994 2501157
0.77792847 -0.037993237 0.17099994 2501157
0.77792847 -0.039545447 0.17099994 2501157
0.77792847 -0.041097648 0.17099994 2369571
0.77792847 -0.042649858 0.17099994 2435364
0.77821118 -0.044406109 0.16999996 2500385
0.77821118 -0.045960926 0.16999996 2368799
0.77821118 -0.047515742 0.16999996 2171420
0.77877659 -0.049494319 0.16799998 2171420
0.77905929 -0.051268883 0.16699994 2237213
0.77934206 -0.053048648 0.16599995 2171420
0.7796247 -0.054833643 0.16499996 2171420
0.77990746 -0.056623839 0.16399997 2171420
0.78019017 -0.05841931 0.16299993 2105627
0.78075558 -0.060447536 0.16099995 2105627
0.78103828 -0.062256046 0.15999997 2039834
0.78160369 -0.064302586 0.15799993 2039834
0.78160369 -0.065888755 0.15799993 2039836
0.7818864 -0.06771294 0.15699995 2171422
0.7818864 -0.069301732 0.15699995 2237215
0.7821691 -0.07113377 0.15599996 2434594
0.78245181 -0.072971024 0.15499997 2500387
0.78245181 -0.074565031 0.15499997 2434594
0.78245181 -0.076159067 0.15499997 2434594
0.78273451 -0.078006767 0.15399998 2500387
0.78273451 -0.079603381 0.15399998 2369571
0.78273451 -0.081200026 0.15399998 2369571
0.78301722 -0.083058186 0.15299994 2369571
0.78301722 -0.084657438 0.15299994 2566180
0.78301722 -0.086256675 0.15299994 2697766
0.78301722 -0.087855928 0.15299994 3158064
0.78301722 -0.089455165 0.15299994 3421236
0.78253835 0.03340343 0.14899993 11643554
0.78253835 0.031793732 0.14899993 4801084
0.78225827 0.030260041 0.14999998 3551017
0.78225827 0.028652959 0.14999998 2960681
0.78225827 0.027045876 0.14999998 2829099
0.78225827 0.0254388 0.14999998 2631720
0.78197819 0.023918167 0.15099996 2697513
0.78169811 0.022402763 0.15199995 2697513
0.78169811 0.020800907 0.15199995 2631720
0.78141797 0.019293342 0.15299994 2697513
0.78113788 0.017791007 0.15399998 2895145
0.78113788 0.016194377 0.15399998 2960938
0.7808578 0.014699876 0.15499997 2895145
0.78057772 0.013210602 0.15599996 2960938
0.78029764 0.011726558 0.15699995 3026478
0.78029764 0.010137767 0.15699995 3027248
0.7800175 0.0086615607 0.15799993 3356213
0.7800175 0.0070753843 0.15799993 3158834
0.77973741 0.0056070238 0.15899998 2699053
0.77945733 0.0041438788 0.15999997 2633262
0.77917725 0.0026859641 0.16099995 2633262
0.77889717 0.0012332723 0.16199994 2699055
0.77861702 -0.00021418929 0.16299993 2764848
0.77833694 -0.0016564205 0.16399997 2699055
0.77833694 -0.0032269135 0.16399997 2699055
0.77777678 -0.0045252144 0.16599995 2633262
0.77777678 -0.0060904846 0.16599995 2764848
0.7774967 -0.0075144321 0.16699994 2764848
0.7774967 -0.0090770945 0.16699994 2896434
0.77721655 -0.010493189 0.16799998 2699055
0.77721655 -0.012053236 0.16799998 2633262
0.77721655 -0.013613284 0.16799998 2567467
0.77721655 -0.015173323 0.16799998 2435881
0.77721655 -0.016733371 0.16799998 2435111
0.77693647 -0.018133797 0.16899997 2500904
0.77693647 -0.019691221 0.16899997 2500904
0.77693647 -0.021248654 0.16899997 2566697
0.77693647 -0.022806086 0.16899997 2698283
0.77693647 -0.024363525 0.16899997 2764329
0.77665639 -0.025748268 0.16999996 2698536
0.77665639 -0.027303092 0.16999996 2698536
0.77665639 -0.028857909 0.16999996 2698536
0.77665639 -0.030412726 0.16999996 2566950
0.77665639 -0.031967551 0.16999996 2566950
0.77665639 -0.033522367 0.16999996 2501157
0.77665639 -0.035077192 0.16999996 2435364
0.77637631 -0.036441036 0.17099994 2501157
0.77637631 -0.037993237 0.17099994 2501157
0.77637631 -0.039545447 0.17099994 2501157
0.77637631 -0.041097648 0.17099994 2435364
0.77637631 -0.042649858 0.17099994 2435364
0.77665639 -0.044406109 0.16999996 2303776
0.77665639 -0.045960926 0.16999996 2106397
0.77693647 -0.047725014 0.16899997 2105627
0.77721655 -0.049494319 0.16799998 2171420
0.7774967 -0.051268883 0.16699994 2237213
0.77777678 -0.053048648 0.16599995 2171420
0.77805686 -0.054833643 0.16499996 2171420
0.77861702 -0.056846194 0.16299993 2105627
0.77889717 -0.058644243 0.16199994 2105627
0.77917725 -0.060447536 0.16099995 2039834
0.77945733 -0.062256046 0.15999997 1974041
0.7800175 -0.064302586 0.15799993 1908248
0.7800175 -0.065888755 0.15799993 1974043
0.78029764 -0.06771294 0.15699995 2171422
0.78029764 -0.069301732 0.15699995 2237215
0.78029764 -0.070890523 0.15699995 2500387
0.78057772 -0.072725169 0.15599996 2434594
0.7808578 -0.074565031 0.15499997 2500387
0.7808578 -0.076159067 0.15499997 2303778
0.7808578 -0.077753074 0.15499997 2303778
0.78113788 -0.079603381 0.15399998 2369571
0.78113788 -0.081200026 0.15399998 2369571
0.78113788 -0.082796641 0.15399998 2303778
0.78113788 -0.084393285 0.15399998 2566180
0.78141797 -0.086256675 0.15299994 2631973
0.78141797 -0.087855928 0.15299994 3026731
0.78141797 -0.089455165 0.15299994 3289650
0.78092867 0.03340343 0.14899993 11183775
0.78092867 0.031793732 0.14899993 4735291
0.78092867 0.030184038 0.14899993 3485224
0.78092867 0.028574344 0.14899993 2894888
0.78065115 0.027045876 0.14999998 2697766
0.78065115 0.0254388 0.14999998 2631720
0.78037369 0.023918167 0.15099996 2631720
0.78009623 0.022402763 0.15199995 2631720
0.78009623 0.020800907 0.15199995 2631720
0.77981877 0.019293342 0.15299994 2697513
0.77954125 0.017791007 0.15399998 2895145
0.77926373 0.016293894 0.15499997 2895145
0.77926373 0.014699876 0.15499997 2895145
0.77898628 0.013210602 0.15599996 2960938
0.77870882 0.011726558 0.15699995 3026731
0.77870882 0.010137767 0.15699995 2961455
0.7784313 0.0086615607 0.15799993 3158834
0.7784313 0.0070753843 0.15799993 3027248
0.77787638 0.0057248324 0.15999997 2699053
0.77787638 0.0041438788 0.15999997 2633260
0.77759886 0.0026859641 0.16099995 2633260
0.7773214 0.0012332723 0.16199994 2699053
0.77704394 -0.00021418929 0.16299993 2764846
0.77676642 -0.0016564205 0.16399997 2699055
0.77676642 -0.0032269135 0.16399997 2633262
0.77648896 -0.0046613142 0.16499996 2633262
0.7762115 -0.0060904846 0.16599995 2764848
0.7762115 -0.0076557621 0.16599995 2830641
0.77593398 -0.0090770945 0.16699994 2830641
0.77565652 -0.010493189 0.16799998 2699055
0.77565652 -0.012053236 0.16799998 2633262
0.77565652 -0.013613284 0.16799998 2435881
0.77565652 -0.015173323 0.16799998 2370088
0.77565652 -0.016733371 0.16799998 2435111
0.77537906 -0.018133797 0.16899997 2435111
0.77537906 -0.019691221 0.16899997 2500904
0.77537906 -0.021248654 0.16899997 2566697
0.77537906 -0.022806086 0.16899997 2698283
0.77537906 -0.024363525 0.16899997 2764329
0.77510154 -0.025748268 0.16999996 2698536
0.77510154 -0.027303092 0.16999996 2698536
0.77510154 -0.028857909 0.16999996 2566950
0.77510154 -0.030412726 0.16999996 2566950
0.77510154 -0.031967551 0.16999996 2501157
0.77510154 -0.033522367 0.16999996 2435364
0.77482408 -0.034888826 0.17099994 2435364
0.77482408 -0.036441036 0.17099994 2435364
0.77482408 -0.037993237 0.17099994 2435364
0.77482408 -0.039545447 0.17099994 2435364
0.77482408 -0.041097648 0.17099994 2369571
0.77482408 -0.042649858 0.17099994 2369571
0.77482408 -0.044202067 0.17099994 2237985
0.77510154 -0.045960926 0.16999996 2237985
0.77537906 -0.047725014 0.16899997 2105629
0.77565652 -0.049494319 0.16799998 2105629
0.77593398 -0.051268883 0.16699994 2237215
0.7762115 -0.053048648 0.16599995 2171422
0.77648896 -0.054833643 0.16499996 2171422
0.77704394 -0.056846194 0.16299993 2039834
0.7773214 -0.058644243 0.16199994 2039834
0.77759886 -0.060447536 0.16099995 1974041
0.77787638 -0.062256046 0.15999997 1908248
0.7784313 -0.064302586 0.15799993 1908250
0.7784313 -0.065888755 0.15799993 2039836
0.77870882 -0.06771294 0.15699995 2171422
0.77870882 -0.069301732 0.15699995 2368801
0.77870882 -0.070890523 0.15699995 2500387
0.77898628 -0.072725169 0.15599996 2434594
0.77898628 -0.074316569 0.15599996 2434594
0.77926373 -0.076159067 0.15499997 2303778
0.77926373 -0.077753074 0.15499997 2303778
0.77926373 -0.079347081 0.15499997 2369571
0.77954125 -0.081200026 0.15399998 2303778
0.77954125 -0.082796641 0.15399998 2434594
0.77954125 -0.084393285 0.15399998 2566180
0.77954125 -0.0859899 0.15399998 2631973
0.77954125 -0.087586544 0.15399998 2960938
0.77981877 -0.089455165 0.15299994 3618615
0.77931899 0.03340343 0.14899993 10657431
0.77931899 0.031793732 0.14899993 4603705
0.77931899 0.030184038 0.14899993 3485224
0.77931899 0.028574344 0.14899993 2763302
0.77904409 0.027045876 0.14999998 2697766
0.77904409 0.0254388 0.14999998 2631973
0.77904409 0.023831718 0.14999998 2631720
0.77849436 0.022402763 0.15199995 2565927
0.77849436 0.020800907 0.15199995 2631720
0.77821952 0.019293342 0.15299994 2697513
0.77794462 0.017791007 0.15399998 2829099
0.77766979 0.016293894 0.15499997 2829352
0.77766979 0.014699876 0.15499997 2697766
0.77739489 0.013210602 0.15599996 2895145
0.77711999 0.011726558 0.15699995 2960938
0.77711999 0.010137767 0.15699995 2895662
0.77684516 0.0086615607 0.15799993 2961455
0.77657032 0.0071905851 0.15899998 2895662
0.77629542 0.0057248324 0.15999997 2633260
0.77629542 0.0041438788 0.15999997 2567467
0.77602053 0.0026859641 0.16099995 2567467
0.77602053 0.0011076257 0.16099995 2699053
0.77547085 -0.00021418929 0.16299993 2764846
0.77547085 -0.0017872974 0.16299993 2633260
0.77519596 -0.0032269135 0.16399997 2633260
0.77492106 -0.0046613142 0.16499996 2699053
0.77464622 -0.0060904846 0.16599995 2764846
0.77464622 -0.0076557621 0.16599995 2830639
0.77437133 -0.0090770945 0.16699994 2764846
0.77409649 -0.010493189 0.16799998 2633260
0.77409649 -0.012053236 0.16799998 2633260
0.77409649 -0.013613284 0.16799998 2435881
0.77409649 -0.015173323 0.16799998 2370088
0.77409649 -0.016733371 0.16799998 2435111
0.77409649 -0.018293418 0.16799998 2369318
0.77382159 -0.019691221 0.16899997 2500904
0.77382159 -0.021248654 0.16899997 2566697
0.77382159 -0.022806086 0.16899997 2698283
0.77354676 -0.024193451 0.16999996 2698536
0.77354676 -0.025748268 0.16999996 2698536
0.77354676 -0.027303092 0.16999996 2698536
0.77354676 -0.028857909 0.16999996 2566950
0.77354676 -0.030412726 0.16999996 2501157
0.77354676 -0.031967551 0.16999996 2435364
0.77354676 -0.033522367 0.16999996 2369571
0.77327186 -0.034888826 0.17099994 2369571
0.77327186 -0.036441036 0.17099994 2435364
0.77327186 -0.037993237 0.17099994 2435364
0.77327186 -0.039545447 0.17099994 2369571
0.77327186 -0.041097648 0.17099994 2369571
0.77327186 -0.042649858 0.17099994 2303778
0.77327186 -0.044202067 0.17099994 2303778
0.77354676 -0.045960926 0.16999996 2303778
0.77382159 -0.047725014 0.16899997 2105629
0.77409649 -0.049494319 0.16799998 2105629
0.77437133 -0.051268883 0.16699994 2237215
0.77464622 -0.053048648 0.16599995 2171422
0.77492106 -0.054833643 0.16499996 2105629
0.77547085 -0.056846194 0.16299993 1974043
0.77574569 -0.058644243 0.16199994 1974043
0.77602053 -0.060447536 0.16099995 1974043
0.77629542 -0.062256046 0.15999997 1908250
0.77657032 -0.064069785 0.15899998 1776664
0.77684516 -0.065888755 0.15799993 1974043
0.77711999 -0.06771294 0.15699995 2171422
0.77711999 -0.069301732 0.15699995 2368801
0.77711999 -0.070890523 0.15699995 2500387
0.77711999 -0.072479315 0.15699995 2434594
0.77739489 -0.074316569 0.15599996 2434594
0.77739489 -0.075907983 0.15599996 2303778
0.77766979 -0.077753074 0.15499997 2303778
0.77766979 -0.079347081 0.15499997 2369571
0.77766979 -0.080941103 0.15499997 2303778
0.77766979 -0.08253511 0.15499997 2303778
0.77794462 -0.084393285 0.15399998 2369571
0.77794462 -0.0859899 0.15399998 2435364
0.77794462 -0.087586544 0.15399998 2960938
0.77794462 -0.089183159 0.15399998 3552818
0.77770925 0.031793732 0.14899993 4603705
0.77770925 0.030184038 0.14899993 3419431
0.77770925 0.028574344 0.14899993 2763302
0.77770925 0.026964646 0.14899993 2631720
0.77743703 0.0254388 0.14999998 2565927
0.77716476 0.023918167 0.15099996 2631720
0.77689248 0.022402763 0.15199995 2565927
0.77689248 0.020800907 0.15199995 2565927
0.77662027 0.019293342 0.15299994 2631720
0.77634799 0.017791007 0.15399998 2829099
0.77607572 0.016293894 0.15499997 2697513
0.77607572 0.014699876 0.15499997 2631720
0.77580345 0.013210602 0.15599996 2829099
0.77553123 0.011726558 0.15699995 2894892
0.77553123 0.010137767 0.15699995 3026478
0.77525896 0.0086615607 0.15799993 2895664
0.77498674 0.0071905851 0.15899998 2829871
0.77471447 0.0057248324 0.15999997 2698283
0.77471447 0.0041438788 0.15999997 2698283
0.7744422 0.0026859641 0.16099995 2567467
0.7744422 0.0011076257 0.16099995 2633260
0.77416992 -0.00034245104 0.16199994 2699053
0.77389771 -0.0017872974 0.16299993 2633260
0.77362543 -0.0032269135 0.16399997 2633260
0.77335322 -0.0046613142 0.16499996 2699053
0.77308095 -0.0060904846 0.16599995 2830639
0.77308095 -0.0076557621 0.16599995 2830639
0.77280867 -0.0090770945 0.16699994 2764846
0.7725364 -0.010493189 0.16799998 2633260
0.7725364 -0.012053236 0.16799998 2633260
0.7725364 -0.013613284 0.16799998 2435881
0.7725364 -0.015173323 0.16799998 2370088
0.7725364 -0.016733371 0.16799998 2304295
0.77226418 -0.018133797 0.16899997 2369318
0.77226418 -0.019691221 0.16899997 2500904
0.77226418 -0.021248654 0.16899997 2500904
0.77226418 -0.022806086 0.16899997 2566697
0.77199191 -0.024193451 0.16999996 2698536
0.77199191 -0.025748268 0.16999996 2566950
0.77199191 -0.027303092 0.16999996 2566950
0.77199191 -0.028857909 0.16999996 2501157
0.77199191 -0.030412726 0.16999996 2435364
0.77199191 -0.031967551 0.16999996 2435364
0.77171969 -0.033336617 0.17099994 2369571
0.77171969 -0.034888826 0.17099994 2369571
0.77171969 -0.036441036 0.17099994 2369571
0.77171969 -0.037993237 0.17099994 2369571
0.77171969 -0.039545447 0.17099994 2303778
0.77171969 -0.041097648 0.17099994 2303778
0.77171969 -0.042649858 0.17099994 2303778
0.77171969 -0.044202067 0.17099994 2369571
0.77199191 -0.045960926 0.16999996 2369571
0.77226418 -0.047725014 0.16899997 2105629
0.7725364 -0.049494319 0.16799998 2171422
0.77280867 -0.051268883 0.16699994 2237215
0.77308095 -0.053048648 0.16599995 2171422
0.77335322 -0.054833643 0.16499996 2105629
0.77389771 -0.056846194 0.16299993 1974043
0.77416992 -0.058644243 0.16199994 1974043
0.7744422 -0.060447536 0.16099995 1908250
0.77471447 -0.062256046 0.15999997 1776664
0.77498674 -0.064069785 0.15899998 1710871
0.77525896 -0.065888755 0.15799993 1908250
0.77525896 -0.067474939 0.15799993 2105629
0.77553123 -0.069301732 0.15699995 2434594
0.77553123 -0.070890523 0.15699995 2434594
0.77553123 -0.072479315 0.15699995 2368801
0.77553123 -0.074068107 0.15699995 2434594
0.77553123 -0.075656913 0.15699995 2434594
0.77580345 -0.077499382 0.15599996 2368801
0.77580345 -0.079090782 0.15599996 2434594
0.77607572 -0.080941103 0.15499997 2434594
0.77607572 -0.08253511 0.15499997 2368801
0.77607572 -0.084129132 0.15499997 2434594
0.77634799 -0.0859899 0.15399998 2566180
0.77634799 -0.087586544 0.15399998 2895145
0.77634799 -0.089183159 0.15399998 3420979
0.77609956 0.031793732 0.14899993 4603705
0.77609956 0.030184038 0.14899993 3419431
0.77609956 0.028574344 0.14899993 2763302
0.77609956 0.026964646 0.14899993 2565927
0.77582991 0.0254388 0.14999998 2565927
0.77556026 0.023918167 0.15099996 2565927
0.77529067 0.022402763 0.15199995 2500134
0.77529067 0.020800907 0.15199995 2565927
0.77502102 0.019293342 0.15299994 2631720
0.77475137 0.017791007 0.15399998 2697513
0.77448171 0.016293894 0.15499997 2566697
0.77448171 0.014699876 0.15499997 2500904
0.77421212 0.013210602 0.15599996 2566697
0.77394247 0.011726558 0.15699995 2764076
0.77367282 0.010247737 0.15799993 2895662
0.77367282 0.0086615607 0.15799993 2895664
0.77340317 0.0071905851 0.15899998 2829871
0.77313352 0.0057248324 0.15999997 2698285
0.77313352 0.0041438788 0.15999997 2698283
0.77286386 0.0026859641 0.16099995 2567467
0.77286386 0.0011076257 0.16099995 2633260
0.77259421 -0.00034245104 0.16199994 2633260
0.77232462 -0.0017872974 0.16299993 2567980
0.77205491 -0.0032269135 0.16399997 2633773
0.77205491 -0.0047974139 0.16399997 2633773
0.77151567 -0.0060904846 0.16599995 2765359
0.77151567 -0.0076557621 0.16599995 2765359
0.77124602 -0.0090770945 0.16699994 2699566
0.77124602 -0.010639749 0.16699994 2633260
0.77097636 -0.012053236 0.16799998 2435881
0.77097636 -0.013613284 0.16799998 2436134
0.77097636 -0.015173323 0.16799998 2370341
0.77097636 -0.016733371 0.16799998 2304548
0.77070677 -0.018133797 0.16899997 2238755
0.77070677 -0.019691221 0.16899997 2435364
0.77070677 -0.021248654 0.16899997 2501157
0.77043712 -0.022638634 0.16999996 2566950
0.77043712 -0.024193451 0.16999996 2566950
0.77043712 -0.025748268 0.16999996 2698536
0.77043712 -0.027303092 0.16999996 2566950
0.77043712 -0.028857909 0.16999996 2501157
0.77043712 -0.030412726 0.16999996 2435364
0.77043712 -0.031967551 0.16999996 2435364
0.77016747 -0.033336617 0.17099994 2303778
0.77016747 -0.034888826 0.17099994 2303778
0.77016747 -0.036441036 0.17099994 2303778
0.77016747 -0.037993237 0.17099994 2303778
0.77016747 -0.039545447 0.17099994 2237985
0.77016747 -0.041097648 0.17099994 2434594
0.77016747 -0.042649858 0.17099994 2368801
0.77016747 -0.044202067 0.17099994 2500387
0.77043712 -0.045960926 0.16999996 2500387
0.77043712 -0.047515742 0.16999996 2171422
0.77097636 -0.049494319 0.16799998 2171420
0.77124602 -0.051268883 0.16699994 2171420
0.77151567 -0.053048648 0.16599995 2105627
0.77178532 -0.054833643 0.16499996 2105627
0.77205491 -0.056623839 0.16399997 1974041
0.77259421 -0.058644243 0.16199994 1908248
0.77286386 -0.060447536 0.16099995 1908248
0.77313352 -0.062256046 0.15999997 1776662
0.77313352 -0.063836999 0.15999997 1710869
0.77367282 -0.065888755 0.15799993 1908250
0.77367282 -0.067474939 0.15799993 2105629
0.77394247 -0.069301732 0.15699995 2368801
0.77394247 -0.070890523 0.15699995 2434594
0.77394247 -0.072479315 0.15699995 2368801
0.77394247 -0.074068107 0.15699995 2434594
0.77394247 -0.075656913 0.15699995 2368801
0.77394247 -0.07724569 0.15699995 2368799
0.77421212 -0.079090782 0.15599996 2368799
0.77421212 -0.080682181 0.15599996 2434592
0.77448171 -0.08253511 0.15499997 2368799
0.77448171 -0.084129132 0.15499997 2434594
0.77448171 -0.085723139 0.15499997 2566180
0.77475137 -0.087586544 0.15399998 2895145
0.77475137 -0.089183159 0.15399998 3092014
0.77448988 0.03340343 0.14899993 10460052
0.77448988 0.031793732 0.14899993 4143154
0.77448988 0.030184038 0.14899993 3353638
0.77448988 0.028574344 0.14899993 2697509
0.77448988 0.026964646 0.14899993 2566180
0.77422285 0.0254388 0.14999998 2500134
0.77395582 0.023918167 0.15099996 2500134
0.77368879 0.022402763 0.15199995 2500134
0.77368879 0.020800907 0.15199995 2500134
0.77315474 0.019387636 0.15399998 2565927
0.77315474 0.017791007 0.15399998 2631720
0.77288771 0.016293894 0.15499997 2566697
0.77262068 0.014802009 0.15599996 2435111
0.77235365 0.01331535 0.15699995 2566697
0.77235365 0.011726558 0.15699995 2698283
0.77208662 0.010247737 0.15799993 2895662
0.77208662 0.0086615607 0.15799993 2895662
0.77181959 0.0071905851 0.15899998 2829869
0.77155256 0.0057248324 0.15999997 2764076
0.77155256 0.0041438788 0.15999997 2698283
0.77128553 0.0026859641 0.16099995 2764076
0.77128553 0.0011076257 0.16099995 2633260
0.77101851 -0.00034245104 0.16199994 2699053
0.77075148 -0.0017872974 0.16299993 2633775
0.77048445 -0.0032269135 0.16399997 2633775
0.77048445 -0.0047974139 0.16399997 2699568
0.77021742 -0.0062291995 0.16499996 2764848
0.76995039 -0.0076557621 0.16599995 2699055
0.76968336 -0.0090770945 0.16699994 2764846
0.76968336 -0.010639749 0.16699994 2567467
0.76941633 -0.012053236 0.16799998 2436134
0.76941633 -0.013613284 0.16799998 2370341
0.76941633 -0.015173323 0.16799998 2304548
0.7691493 -0.016576365 0.16899997 2304548
0.7691493 -0.018133797 0.16899997 2304548
0.76888227 -0.019528992 0.16999996 2304548
0.76888227 -0.021083809 0.16999996 2501157
0.76888227 -0.022638634 0.16999996 2566950
0.76888227 -0.024193451 0.16999996 2566950
0.76888227 -0.025748268 0.16999996 2566950
0.76888227 -0.027303092 0.16999996 2566950
0.76888227 -0.028857909 0.16999996 2501157
0.76888227 -0.030412726 0.16999996 2435364
0.76888227 -0.031967551 0.16999996 2435364
0.76888227 -0.033522367 0.16999996 2303778
0.76861525 -0.034888826 0.17099994 2237985
0.76861525 -0.036441036 0.17099994 2303778
0.76861525 -0.037993237 0.17099994 2237985
0.76861525 -0.039545447 0.17099994 2237985
0.76861525 -0.041097648 0.17099994 2368801
0.76861525 -0.042649858 0.17099994 2368801
0.76888227 -0.044406109 0.16999996 2434594
0.76888227 -0.045960926 0.16999996 2434594
0.7691493 -0.047725014 0.16899997 2171420
0.76941633 -0.049494319 0.16799998 2105627
0.76968336 -0.051268883 0.16699994 2171420
0.76995039 -0.053048648 0.16599995 2105627
0.77021742 -0.054833643 0.16499996 2039834
0.77048445 -0.056623839 0.16399997 1974041
0.77075148 -0.05841931 0.16299993 1908248
0.77128553 -0.060447536 0.16099995 1908248
0.77128553 -0.062025867 0.16099995 1776662
0.77155256 -0.063836999 0.15999997 1710869
0.77181959 -0.065653346 0.15899998 1776662
0.77208662 -0.067474939 0.15799993 2039834
0.77208662 -0.069061108 0.15799993 2237215
0.77235365 -0.070890523 0.15699995 2368801
0.77235365 -0.072479315 0.15699995 2368801
0.77235365 -0.074068107 0.15699995 2434594
0.77235365 -0.075656913 0.15699995 2368799
0.77235365 -0.07724569 0.15699995 2368799
0.77235365 -0.078834467 0.15699995 2368799
0.77262068 -0.080682181 0.15599996 2368799
0.77262068 -0.08227358 0.15599996 2368799
0.77288771 -0.084129132 0.15499997 2434594
0.77288771 -0.085723139 0.15499997 2566180
0.77315474 -0.087586544 0.15399998 2895145
0.77315474 -0.089183159 0.15399998 3026221
0.7728802 0.03340343 0.14899993 11117982
0.7728802 0.031793732 0.14899993 3814189
0.7728802 0.030184038 0.14899993 3353638
0.7728802 0.028574344 0.14899993 2828325
0.77261579 0.027045876 0.14999998 2565927
0.77261579 0.0254388 0.14999998 2500134
0.77235138 0.023918167 0.15099996 2500134
0.77208698 0.022402763 0.15199995 2500134
0.77182251 0.020892583 0.15299994 2500134
0.77155811 0.019387636 0.15399998 2565927
0.7712937 0.017887913 0.15499997 2631720
0.7712937 0.016293894 0.15499997 2566697
0.77102929 0.014802009 0.15599996 2435111
0.77076489 0.01331535 0.15699995 2566697
0.77076489 0.011726558 0.15699995 2698283
0.77050042 0.010247737 0.15799993 2895662
0.77050042 0.0086615607 0.15799993 2895662
0.77023602 0.0071905851 0.15899998 2764076
0.76997161 0.0057248324 0.15999997 2764076
0.76997161 0.0041438788 0.15999997 2698283
0.7697072 0.0026859641 0.16099995 2698283
0.7697072 0.0011076257 0.16099995 2633260
0.7694428 -0.00034245104 0.16199994 2699053
0.76917839 -0.0017872974 0.16299993 2764848
0.76917839 -0.003360413 0.16299993 2764848
0.76891398 -0.0047974139 0.16399997 2699055
0.76864952 -0.0062291995 0.16499996 2699053
0.76838511 -0.0076557621 0.16599995 2633260
0.76838511 -0.0092210323 0.16599995 2699053
0.76812071 -0.010639749 0.16699994 2698283
0.7678563 -0.012053236 0.16799998 2566950
0.7678563 -0.013613284 0.16799998 2501157
0.7678563 -0.015173323 0.16799998 2435364
0.76759183 -0.016576365 0.16899997 2369571
0.76732743 -0.017974183 0.16999996 2435364
0.76732743 -0.019528992 0.16999996 2435364
0.76732743 -0.021083809 0.16999996 2435364
0.76732743 -0.022638634 0.16999996 2566950
0.76732743 -0.024193451 0.16999996 2566950
0.76732743 -0.025748268 0.16999996 2501157
0.76732743 -0.027303092 0.16999996 2501157
0.76732743 -0.028857909 0.16999996 2501157
0.76732743 -0.030412726 0.16999996 2435364
0.76732743 -0.031967551 0.16999996 2369571
0.76732743 -0.033522367 0.16999996 2303778
0.76706302 -0.034888826 0.17099994 2237985
0.76706302 -0.036441036 0.17099994 2237985
0.76706302 -0.037993237 0.17099994 2237985
0.76706302 -0.039545447 0.17099994 2237985
0.76706302 -0.041097648 0.17099994 2368801
0.76732743 -0.042851284 0.16999996 2171422
0.76732743 -0.044406109 0.16999996 2368801
0.76732743 -0.045960926 0.16999996 2368801
0.76759183 -0.047725014 0.16899997 2105627
0.7678563 -0.049494319 0.16799998 2039834
0.76812071 -0.051268883 0.16699994 2039834
0.76838511 -0.053048648 0.16599995 1974041
0.76864952 -0.054833643 0.16499996 1974041
0.76891398 -0.056623839 0.16399997 1908248
0.76917839 -0.05841931 0.16299993 1908248
0.7697072 -0.060447536 0.16099995 1776662
0.7697072 -0.062025867 0.16099995 1776662
0.76997161 -0.063836999 0.15999997 1710869
0.76997161 -0.065417953 0.15999997 1908248
0.77050042 -0.067474939 0.15799993 1974041
0.77050042 -0.069061108 0.15799993 2105627
0.77050042 -0.070647292 0.15799993 2237213
0.77076489 -0.072479315 0.15699995 2368801
0.77076489 -0.074068107 0.15699995 2434594
0.77076489 -0.075656913 0.15699995 2368799
0.77076489 -0.07724569 0.15699995 2368799
0.77076489 -0.078834467 0.15699995 2368799
0.77076489 -0.080423273 0.15699995 2368799
0.77102929 -0.08227358 0.15599996 2368799
0.7712937 -0.084129132 0.15499997 2434594
0.7712937 -0.085723139 0.15499997 2500387
0.77155811 -0.087586544 0.15399998 2829352
0.77155811 -0.089183159 0.15399998 2960428
0.77100873 0.033474207 0.14999998 11249568
0.77100873 0.031867124 0.14999998 3682603
0.77127051 0.030184038 0.14899993 3287845
0.77100873 0.028652959 0.14999998 2828325
0.77100873 0.027045876 0.14999998 2566180
0.77074689 0.025522638 0.15099996 2500387
0.7704851 0.02400462 0.15199995 2500387
0.7704851 0.022402763 0.15199995 2434594
0.77022332 0.020892583 0.15299994 2500387
0.76996148 0.019387636 0.15399998 2566180
0.76969969 0.017887913 0.15499997 2435364
0.76969969 0.016293894 0.15499997 2501157
0.76917607 0.014904138 0.15699995 2435364
0.76917607 0.01331535 0.15699995 2566950
0.76891428 0.011833914 0.15799993 2764329
0.76891428 0.010247737 0.15799993 2829869
0.76865244 0.0087741464 0.15899998 2829869
0.76839066 0.007305786 0.15999997 2764076
0.76839066 0.0057248324 0.15999997 2698283
0.76839066 0.0041438788 0.15999997 2698283
0.76812887 0.0026859641 0.16099995 2829869
0.76812887 0.0011076257 0.16099995 2699053
0.76786709 -0.00034245104 0.16199994 2699053
0.76786709 -0.0019181743 0.16199994 2764846
0.7676053 -0.003360413 0.16299993 2699053
0.76734346 -0.0047974139 0.16399997 2699053
0.76734346 -0.0063679144 0.16399997 2633260
0.76708168 -0.0077970847 0.16499996 2567467
0.76681983 -0.0092210323 0.16599995 2764076
0.76655805 -0.010639749 0.16699994 2698536
0.76655805 -0.012202412 0.16699994 2566950
0.76629627 -0.013613284 0.16799998 2501157
0.76629627 -0.015173323 0.16799998 2435364
0.76603448 -0.016576365 0.16899997 2369571
0.76577264 -0.017974183 0.16999996 2435364
0.76577264 -0.019528992 0.16999996 2369571
0.76577264 -0.021083809 0.16999996 2435364
0.76577264 -0.022638634 0.16999996 2501157
0.76577264 -0.024193451 0.16999996 2566950
0.76577264 -0.025748268 0.16999996 2501157
0.76551086 -0.027127795 0.17099994 2501157
0.76551086 -0.028679997 0.17099994 2369571
0.76551086 -0.030232206 0.17099994 2435364
0.76551086 -0.031784415 0.17099994 2369571
0.76551086 -0.033336617 0.17099994 2303778
0.76551086 -0.034888826 0.17099994 2237985
0.76551086 -0.036441036 0.17099994 2237985
0.76551086 -0.037993237 0.17099994 2237985
0.76551086 -0.039545447 0.17099994 2237985
0.76551086 -0.041097648 0.17099994 2106399
0.76551086 -0.042649858 0.17099994 2171422
0.76577264 -0.044406109 0.16999996 2237215
0.76577264 -0.045960926 0.16999996 2368801
0.76603448 -0.047725014 0.16899997 2105627
0.76629627 -0.049494319 0.16799998 2039834
0.76655805 -0.051268883 0.16699994 2039834
0.76681983 -0.053048648 0.16599995 1974041
0.76708168 -0.054833643 0.16499996 1974041
0.76734346 -0.056623839 0.16399997 1908248
0.7676053 -0.05841931 0.16299993 1908248
0.76786709 -0.060219981 0.16199994 1776662
0.76812887 -0.062025867 0.16099995 1710869
0.76839066 -0.063836999 0.15999997 1710869
0.76839066 -0.065417953 0.15999997 1776662
0.76865244 -0.067236908 0.15899998 1908248
0.76891428 -0.069061108 0.15799993 2039834
0.76891428 -0.070647292 0.15799993 2237213
0.76891428 -0.072233461 0.15799993 2434592
0.76917607 -0.074068107 0.15699995 2368801
0.76917607 -0.075656913 0.15699995 2368801
0.76917607 -0.07724569 0.15699995 2368801
0.76917607 -0.078834467 0.15699995 2368801
0.76917607 -0.080423273 0.15699995 2237215
0.76943791 -0.08227358 0.15599996 2237215
0.76969969 -0.084129132 0.15499997 2368801
0.76969969 -0.085723139 0.15499997 2500387
0.76996148 -0.087586544 0.15399998 2829352
0.76996148 -0.089183159 0.15399998 3486772
0.76940161 0.033474207 0.14999998 11315361
0.76940161 0.031867124 0.14999998 4011568
0.76940161 0.030260041 0.14999998 3287845
0.76940161 0.028652959 0.14999998 2762532
0.76914239 0.027127102 0.15099996 2565923
0.76888323 0.025606476 0.15199995 2434594
0.76888323 0.02400462 0.15199995 2434594
0.76862407 0.022491828 0.15299994 2500387
0.76836485 0.020984266 0.15399998 2500387
0.76810563 0.019481927 0.15499997 2631973
0.76810563 0.017887913 0.15499997 2500904
0.76784647 0.016393412 0.15599996 2435111
0.7675873 0.014904138 0.15699995 2435111
0.7675873 0.01331535 0.15699995 2566697
0.76732808 0.011833914 0.15799993 2698283
0.76732808 0.010247737 0.15799993 2764076
0.76706886 0.0087741464 0.15899998 2829869
0.7668097 0.007305786 0.15999997 2698283
0.7668097 0.0057248324 0.15999997 2698283
0.7668097 0.0041438788 0.15999997 2764076
0.76655054 0.0026859641 0.16099995 2829869
0.76655054 0.0011076257 0.16099995 2764846
0.76655054 -0.00047071278 0.16099995 2699053
0.76629132 -0.0019181743 0.16199994 2764846
0.76603216 -0.003360413 0.16299993 2699053
0.76603216 -0.0049335212 0.16299993 2699053
0.76577294 -0.0063679144 0.16399997 2633260
0.76551378 -0.0077970847 0.16499996 2567467
0.76525462 -0.0092210323 0.16599995 2764076
0.7649954 -0.010639749 0.16699994 2566950
0.7649954 -0.012202412 0.16699994 2566950
0.76473618 -0.013613284 0.16799998 2501157
0.76473618 -0.015173323 0.16799998 2501157
0.76447701 -0.016576365 0.16899997 2369571
0.76421785 -0.017974183 0.16999996 2369571
0.76421785 -0.019528992 0.16999996 2369571
0.76421785 -0.021083809 0.16999996 2435364
0.76421785 -0.022638634 0.16999996 2501157
0.76395863 -0.024023376 0.17099994 2501157
0.76395863 -0.025575586 0.17099994 2435364
0.76395863 -0.027127795 0.17099994 2435364
0.76395863 -0.028679997 0.17099994 2369571
0.76395863 -0.030232206 0.17099994 2435364
0.76395863 -0.031784415 0.17099994 2303778
0.76395863 -0.033336617 0.17099994 2237985
0.76395863 -0.034888826 0.17099994 2237985
0.76395863 -0.036441036 0.17099994 2237985
0.76395863 -0.037993237 0.17099994 2237985
0.76395863 -0.039545447 0.17099994 2106399
0.76395863 -0.041097648 0.17099994 2040606
0.76395863 -0.042649858 0.17099994 2040606
0.76421785 -0.044406109 0.16999996 2171422
0.76421785 -0.045960926 0.16999996 2171422
0.76447701 -0.047725014 0.16899997 2039836
0.76473618 -0.049494319 0.16799998 2039834
0.7649954 -0.051268883 0.16699994 1974041
0.76525462 -0.053048648 0.16599995 1908248
0.76551378 -0.054833643 0.16499996 1908248
0.76577294 -0.056623839 0.16399997 1908248
0.76603216 -0.05841931 0.16299993 1776662
0.76629132 -0.060219981 0.16199994 1710869
0.76655054 -0.062025867 0.16099995 1645076
0.76655054 -0.063604213 0.16099995 1645076
0.7668097 -0.065417953 0.15999997 1710869
0.7668097 -0.066998892 0.15999997 1776662
0.76732808 -0.069061108 0.15799993 2039836
0.76732808 -0.070647292 0.15799993 2171422
0.76732808 -0.072233461 0.15799993 2368801
0.7675873 -0.074068107 0.15699995 2237215
0.7675873 -0.075656913 0.15699995 2237215
0.7675873 -0.07724569 0.15699995 2368801
0.7675873 -0.078834467 0.15699995 2368801
0.7675873 -0.080423273 0.15699995 2237215
0.76784647 -0.08227358 0.15599996 2237215
0.76810563 -0.084129132 0.15499997 2368801
0.76810563 -0.085723139 0.15499997 2566180
0.76836485 -0.087586544 0.15399998 2697766
0.76836485 -0.089183159 0.15399998 3487025
0.76779455 0.033474207 0.14999998 11315361
0.76779455 0.031867124 0.14999998 3879982
0.76779455 0.030260041 0.14999998 3287845
0.76753795 0.02873157 0.15099996 2762532
0.76753795 0.027127102 0.15099996 2565923
0.76728141 0.025606476 0.15199995 2434594
