# .PCD v0.7 - Point Cloud Data file format
VERSION 0.7
FIELDS x y z rgb
SIZE 4 4 4 4
TYPE F F F U
COUNT 1 1 1 1
WIDTH 1051
HEIGHT 1
VIEWPOINT 0 0 0 1 0 0 0
POINTS 1051
DATA ascii
0.79123253 0.0062592626 0.20199996 4279713706
0.79123253 0.0047880635 0.20199996 4279713706
0.79123253 0.0033168644 0.20199996 4279713706
0.79123253 0.0018456653 0.20199996 4279713706
0.79123253 0.00037446618 0.20199996 4279713706
0.79155445 -0.0012354478 0.20099998 4279713706
0.79155445 -0.0027092621 0.20099998 4279713706
0.79155445 -0.0041830689 0.20099998 4279713706
0.79155445 -0.0056568831 0.20099998 4279713706
0.79155445 -0.0071306974 0.20099998 4279713706
0.79155445 -0.0086045042 0.20099998 4279713706
0.79155445 -0.010078318 0.20099998 4279713706
0.79187632 -0.011709139 0.19999999 4279713706
0.79187632 -0.013185561 0.19999999 4279713706
0.79187632 -0.014661983 0.19999999 4279713706
0.79219824 -0.016303256 0.19899994 4279713706
0.79219824 -0.017782301 0.19899994 4279713706
0.79219824 -0.019261338 0.19899994 4279713706
0.79252017 -0.020913057 0.19799995 4279713706
0.79252017 -0.022394709 0.19799995 4279713706
0.79252017 -0.023876362 0.19799995 4279713706
0.79252017 -0.025358014 0.19799995 4279713706
0.79252017 -0.026839666 0.19799995 4279713706
0.79252017 -0.028321318 0.19799995 4279713706
0.79252017 -0.029802971 0.19799995 4279713706
0.79252017 -0.031284623 0.19799995 4279713706
0.79252017 -0.032766275 0.19799995 4279713706
0.79219824 -0.034051724 0.19899994 4279713706
0.79219824 -0.035530761 0.19899994 4279713706
0.79187632 -0.036808357 0.19999999 4279713706
0.79187632 -0.038284786 0.19999999 4279713706
0.79155445 -0.039554551 0.20099998 4279713706
0.79123253 -0.040819101 0.20199996 4279713706
0.79123253 -0.0422903 0.20199996 4279713706
0.79123253 -0.043761499 0.20199996 4279713706
0.7909106 -0.045015588 0.20299995 4279713706
0.7909106 -0.046484172 0.20299995 4279713706
0.79123253 -0.048175089 0.20199996 4279713706
0.7909106 -0.049421333 0.20299995 4279713706
0.7909106 -0.050889932 0.20299995 4279713706
0.79123253 -0.052588679 0.20199996 4279713706
0.79123253 -0.054059885 0.20199996 4279713706
0.79123253 -0.055531077 0.20199996 4279713706
0.79123253 -0.057002284 0.20199996 4279713706
0.79123253 -0.058473475 0.20199996 4279713706
0.79123253 -0.059944682 0.20199996 4279713706
0.79123253 -0.061415873 0.20199996 4279713706
0.79123253 -0.06288708 0.20199996 4279713706
0.79123253 -0.064358287 0.20199996 4279713706
0.79123253 -0.065829478 0.20199996 4279713706
0.79123253 -0.06730067 0.20199996 4279713706
0.79123253 -0.068771876 0.20199996 4279713706
0.79123253 -0.070243068 0.20199996 4279713706
0.79123253 -0.071714275 0.20199996 4279713706
0.79155445 -0.073452212 0.20099998 4279713706
0.79187632 -0.075195409 0.19999999 4279713706
0.79252017 -0.077215798 0.19799995 4279713706
0.79316396 -0.079246663 0.19599998 4279713706
0.79412967 -0.081565164 0.19299996 4279713706
0.79477346 -0.083619528 0.19099998 4279713706
0.79541731 -0.085684352 0.18899995 4281309962
0.79638302 -0.088044696 0.18599993 4281309962
0.79670489 -0.089845352 0.18499994 4281309962
0.79734874 -0.091941528 0.18299997 4281309962
0.7976706 -0.093755268 0.18199998 4281309962
0.7976706 -0.095278732 0.18199998 4281309962
0.7976706 -0.096802182 0.18199998 4281309962
0.79799253 -0.098626398 0.18099993 4281309962
0.79895824 -0.10106248 0.17799997 4281309962
0.80024588 -0.10382024 0.17399997 4281309962
0.80217731 -0.10721601 0.16799998 4281309962
0.80346489 -0.11002079 0.16399997 4281309962
0.80539638 -0.11347406 0.15799993 4281309962
0.80732775 -0.11695869 0.15199995 4281309962
0.80893731 -0.12015565 0.14699996 4281309962
0.81054682 -0.12337875 0.14199996 4281309962
0.80828023 0.062259261 0.14399993 4286450754
0.80668378 0.06076825 0.14899993 4286450754
0.80476803 0.059332337 0.15499997 4286450754
0.80093658 0.056554578 0.16699994 4286450754
0.79902077 0.055212736 0.17299998 4281309962
0.79806292 0.053784005 0.17599994 4281309962
0.79710501 0.052370951 0.17899996 4281309962
0.79710501 0.050839648 0.17899996 4281309962
0.79678571 0.049355604 0.17999995 4281309962
0.79646647 0.047876783 0.18099993 4281309962
0.79614717 0.046403192 0.18199998 4281309962
0.79614717 0.044879731 0.18199998 4281309962
0.79614717 0.04335627 0.18199998 4281309962
0.79614717 0.041832812 0.18199998 4281309962
0.79582787 0.040372282 0.18299997 4281309962
0.79582787 0.038851433 0.18299997 4281309962
0.79582787 0.037330586 0.18299997 4281309962
0.79582787 0.035809737 0.18299997 4281309962
0.79550856 0.034362275 0.18399996 4281309962
0.79518926 0.032920036 0.18499994 4281309962
0.79455072 0.031561643 0.18699998 4281309962
0.79391211 0.030213699 0.18899995 4279713706
0.79327351 0.028876211 0.19099998 4279713706
0.79263496 0.027549174 0.19299996 4279713706
0.79167706 0.026321653 0.19599998 4279713706
0.79135776 0.024926454 0.19699997 4279713706
0.79103851 0.023536481 0.19799995 4279713706
0.79039991 0.022248641 0.19999999 4279713706
0.79008061 0.020871732 0.20099998 4279713706
0.79008061 0.019397922 0.20099998 4279713706
0.79008061 0.017924108 0.20099998 4279713706
0.7897613 0.016557653 0.20199996 4279713706
0.7897613 0.015086453 0.20199996 4279713706
0.7897613 0.013615251 0.20199996 4279713706
0.7897613 0.012144059 0.20199996 4279713706
0.78944206 0.010790668 0.20299995 4279713706
0.78944206 0.0093220845 0.20299995 4279713706
0.78944206 0.0078534931 0.20299995 4279713706
0.78944206 0.0063849092 0.20299995 4279713706
0.78944206 0.0049163252 0.20299995 4279713706
0.78944206 0.0034477413 0.20299995 4279713706
0.78944206 0.0019791499 0.20299995 4279713706
0.7897613 0.00037446618 0.20199996 4279713706
0.7897613 -0.0010967329 0.20199996 4279713706
0.7897613 -0.002567932 0.20199996 4279713706
0.7897613 -0.0040391311 0.20199996 4279713706
0.7897613 -0.0055103302 0.20199996 4279713706
0.7897613 -0.0069815293 0.20199996 4279713706
0.7897613 -0.0084527284 0.20199996 4279713706
0.7897613 -0.0099239275 0.20199996 4279713706
0.79008061 -0.011552133 0.20099998 4279713706
0.79008061 -0.013025947 0.20099998 4279713706
0.79008061 -0.014499746 0.20099998 4279713706
0.79039991 -0.016138405 0.19999999 4279713706
0.79039991 -0.017614827 0.19999999 4279713706
0.79039991 -0.019091256 0.19999999 4279713706
0.79071921 -0.020740375 0.19899994 4279713706
0.79071921 -0.022219412 0.19899994 4279713706
0.79071921 -0.023698449 0.19899994 4279713706
0.79071921 -0.025177494 0.19899994 4279713706
0.79071921 -0.026656531 0.19899994 4279713706
0.79071921 -0.028135568 0.19899994 4279713706
0.79071921 -0.029614605 0.19899994 4279713706
0.79071921 -0.031093642 0.19899994 4279713706
0.79071921 -0.032572679 0.19899994 4279713706
0.79039991 -0.033855505 0.19999999 4279713706
0.79039991 -0.035331935 0.19999999 4279713706
0.79008061 -0.03660693 0.20099998 4279713706
0.79008061 -0.038080744 0.20099998 4279713706
0.7897613 -0.039347902 0.20199996 4279713706
0.7897613 -0.040819101 0.20199996 4279713706
0.78944206 -0.042078421 0.20299995 4279713706
0.78944206 -0.043547004 0.20299995 4279713706
0.78944206 -0.045015588 0.20299995 4279713706
0.78944206 -0.046484172 0.20299995 4279713706
0.78944206 -0.047952756 0.20299995 4279713706
0.78944206 -0.049421333 0.20299995 4279713706
0.78944206 -0.050889932 0.20299995 4279713706
0.78944206 -0.052358516 0.20299995 4279713706
0.78944206 -0.0538271 0.20299995 4279713706
0.78944206 -0.055295683 0.20299995 4279713706
0.78944206 -0.056764267 0.20299995 4279713706
0.78944206 -0.058232851 0.20299995 4279713706
0.78944206 -0.059701435 0.20299995 4279713706
0.78944206 -0.061170034 0.20299995 4279713706
0.78944206 -0.062638618 0.20299995 4279713706
0.78944206 -0.064107202 0.20299995 4279713706
0.78944206 -0.065575786 0.20299995 4279713706
0.78944206 -0.06704437 0.20299995 4279713706
0.7897613 -0.068771876 0.20199996 4279713706
0.78944206 -0.069981538 0.20299995 4279713706
0.7897613 -0.071714275 0.20199996 4279713706
0.79008061 -0.073452212 0.20099998 4279713706
0.79039991 -0.075195409 0.19999999 4279713706
0.79071921 -0.076943822 0.19899994 4279713706
0.79167706 -0.079246663 0.19599998 4279713706
0.79231566 -0.081287958 0.19399995 4279713706
0.79295421 -0.083339714 0.19199997 4279713706
0.79391211 -0.085684352 0.18899995 4281309962
0.79455072 -0.087759636 0.18699998 4281309962
0.79550856 -0.090133019 0.18399996 4281309962
0.79582787 -0.091941528 0.18299997 4281309962
0.79614717 -0.093755268 0.18199998 4281309962
0.79614717 -0.095278732 0.18199998 4281309962
0.79646647 -0.09710031 0.18099993 4281309962
0.79646647 -0.098626398 0.18099993 4281309962
0.79742432 -0.10106248 0.17799997 4281309962
0.79902077 -0.10412619 0.17299998 4281309962
0.80061722 -0.10721601 0.16799998 4281309962
0.80221373 -0.11033199 0.16299993 4281309962
0.80381018 -0.11347406 0.15799993 4281309962
0.80572593 -0.11695869 0.15199995 4281309962
0.80732238 -0.12015565 0.14699996 4281309962
0.80891883 -0.12337875 0.14199996 4281309962
0.80697417 0.062235523 0.14299995 4286450754
0.8050741 0.06076825 0.14899993 4286450754
0.80317402 0.059332337 0.15499997 4286450754
0.80127394 0.05792778 0.16099995 4286450754
0.79937387 0.056554578 0.16699994 4286450754
0.79779053 0.055175934 0.17199993 4281309962
0.79620707 0.053823423 0.17699999 4281309962
0.79557371 0.052370951 0.17899996 4281309962
0.79557371 0.050839648 0.17899996 4281309962
0.79525709 0.049355604 0.17999995 4281309962
0.79494041 0.047876783 0.18099993 4281309962
0.79462373 0.046403192 0.18199998 4281309962
0.79462373 0.044879731 0.18199998 4281309962
0.79462373 0.04335627 0.18199998 4281309962
0.79462373 0.041832812 0.18199998 4281309962
0.79430699 0.040372282 0.18299997 4281309962
0.79430699 0.038851433 0.18299997 4281309962
0.79430699 0.037330586 0.18299997 4281309962
0.79430699 0.035809737 0.18299997 4281309962
0.79430699 0.034288887 0.18299997 4281309962
0.79367369 0.032920036 0.18499994 4281309962
0.79304028 0.031561643 0.18699998 4281309962
0.79240698 0.030213699 0.18899995 4279713706
0.79177356 0.028876211 0.19099998 4279713706
0.79114026 0.027549174 0.19299996 4279713706
0.7905069 0.026232585 0.19499993 4279713706
0.78987354 0.024926454 0.19699997 4279713706
0.78955686 0.023536481 0.19799995 4279713706
0.78924018 0.022151731 0.19899994 4279713706
0.7889235 0.020772215 0.19999999 4279713706
0.78860682 0.019397922 0.20099998 4279713706
0.78829014 0.018028852 0.20199996 4279713706
0.78829014 0.016557653 0.20199996 4279713706
0.78829014 0.015086453 0.20199996 4279713706
0.78797346 0.013727836 0.20299995 4279713706
0.78797346 0.012259252 0.20299995 4279713706
0.78797346 0.010790668 0.20299995 4279713706
0.78797346 0.0093220845 0.20299995 4279713706
0.78797346 0.0078534931 0.20299995 4279713706
0.78797346 0.0063849092 0.20299995 4279713706
0.78797346 0.0049163252 0.20299995 4279713706
0.78797346 0.0034477413 0.20299995 4279713706
0.78797346 0.0019791499 0.20299995 4279713706
0.78797346 0.00051056594 0.20299995 4279713706
0.78797346 -0.000958018 0.20299995 4279713706
0.78797346 -0.0024266019 0.20299995 4279713706
0.78797346 -0.0038951933 0.20299995 4279713706
0.78797346 -0.0053637773 0.20299995 4279713706
0.78797346 -0.0068323612 0.20299995 4279713706
0.78797346 -0.0083009526 0.20299995 4279713706
0.78797346 -0.0097695366 0.20299995 4279713706
0.78829014 -0.011395127 0.20199996 4279713706
0.78829014 -0.012866326 0.20199996 4279713706
0.78829014 -0.014337517 0.20199996 4279713706
0.78860682 -0.015973561 0.20099998 4279713706
0.78860682 -0.017447375 0.20099998 4279713706
0.78860682 -0.018921182 0.20099998 4279713706
0.78860682 -0.020394996 0.20099998 4279713706
0.7889235 -0.022044107 0.19999999 4279713706
0.7889235 -0.023520529 0.19999999 4279713706
0.7889235 -0.024996959 0.19999999 4279713706
0.7889235 -0.026473381 0.19999999 4279713706
0.7889235 -0.02794981 0.19999999 4279713706
0.7889235 -0.029426232 0.19999999 4279713706
0.7889235 -0.030902654 0.19999999 4279713706
0.78860682 -0.032185495 0.20099998 4279713706
0.78860682 -0.033659309 0.20099998 4279713706
0.78860682 -0.035133116 0.20099998 4279713706
0.78829014 -0.036405504 0.20199996 4279713706
0.78829014 -0.037876703 0.20199996 4279713706
0.78797346 -0.039141245 0.20299995 4279713706
0.78797346 -0.040609829 0.20299995 4279713706
0.78797346 -0.042078421 0.20299995 4279713706
0.78797346 -0.043547004 0.20299995 4279713706
0.78765678 -0.044798486 0.20399994 4279713706
0.78765678 -0.046264455 0.20399994 4279713706
0.78765678 -0.047730424 0.20399994 4279713706
0.78765678 -0.0491964 0.20399994 4279713706
0.78797346 -0.050889932 0.20299995 4279713706
0.78797346 -0.052358516 0.20299995 4279713706
0.78797346 -0.0538271 0.20299995 4279713706
0.78797346 -0.055295683 0.20299995 4279713706
0.78797346 -0.056764267 0.20299995 4279713706
0.78797346 -0.058232851 0.20299995 4279713706
0.78797346 -0.059701435 0.20299995 4279713706
0.78797346 -0.061170034 0.20299995 4279713706
0.78797346 -0.062638618 0.20299995 4279713706
0.78797346 -0.064107202 0.20299995 4279713706
0.78797346 -0.065575786 0.20299995 4279713706
0.78797346 -0.06704437 0.20299995 4279713706
0.78797346 -0.068512954 0.20299995 4279713706
0.78797346 -0.069981538 0.20299995 4279713706
0.78829014 -0.071714275 0.20199996 4279713706
0.78829014 -0.073185466 0.20199996 4279713706
0.78860682 -0.074926041 0.20099998 4279713706
0.78924018 -0.076943822 0.19899994 4279713706
0.79019022 -0.079246663 0.19599998 4279713706
0.79082358 -0.081287958 0.19399995 4279713706
0.79177356 -0.083619528 0.19099998 4279713706
0.79240698 -0.085684352 0.18899995 4281309962
0.79335701 -0.088044696 0.18599993 4281309962
0.79399037 -0.090133019 0.18399996 4281309962
0.79430699 -0.091941528 0.18299997 4281309962
0.79462373 -0.093755268 0.18199998 4281309962
0.79494041 -0.095574252 0.18099993 4281309962
0.79494041 -0.09710031 0.18099993 4281309962
0.79525709 -0.098927133 0.17999995 4281309962
0.79589045 -0.10106248 0.17799997 4281309962
0.79747379 -0.10412619 0.17299998 4281309962
0.79905719 -0.10721601 0.16799998 4281309962
0.80064058 -0.11033199 0.16299993 4281309962
0.80222404 -0.11347406 0.15799993 4281309962
0.80412406 -0.11695869 0.15199995 4281309962
0.80570745 -0.12015565 0.14699996 4281309962
0.80729085 -0.12337875 0.14199996 4281309962
0.80503476 0.062259261 0.14399993 4286450754
0.80346441 0.06076825 0.14899993 4286450754
0.80158001 0.059332337 0.15499997 4286450754
0.79969561 0.05792778 0.16099995 4286450754
0.79781121 0.056554578 0.16699994 4286450754
0.79624093 0.055175934 0.17199993 4281309962
0.79467058 0.053823423 0.17699999 4281309962
0.79404247 0.052370951 0.17899996 4281309962
0.79404247 0.050839648 0.17899996 4281309962
0.79372835 0.049355604 0.17999995 4281309962
0.79341429 0.047876783 0.18099993 4281309962
0.79310024 0.046403192 0.18199998 4281309962
0.79310024 0.044879731 0.18199998 4281309962
0.79310024 0.04335627 0.18199998 4281309962
0.79310024 0.041832812 0.18199998 4281309962
0.79278618 0.040372282 0.18299997 4281309962
0.79278618 0.038851433 0.18299997 4281309962
0.79278618 0.037330586 0.18299997 4281309962
0.79278618 0.035809737 0.18299997 4281309962
0.79278618 0.034288887 0.18299997 4281309962
0.79215801 0.032920036 0.18499994 4281309962
0.79184401 0.031483024 0.18599993 4281309962
0.79090178 0.030213699 0.18899995 4279713706
0.79027367 0.028876211 0.19099998 4279713706
0.78964549 0.027549174 0.19299996 4279713706
0.78901738 0.026232585 0.19499993 4279713706
0.78838927 0.024926454 0.19699997 4279713706
0.78807521 0.023536481 0.19799995 4279713706
0.78776109 0.022151731 0.19899994 4279713706
0.78744704 0.020772215 0.19999999 4279713706
0.78713298 0.019397922 0.20099998 4279713706
0.78713298 0.017924108 0.20099998 4279713706
0.78681892 0.016557653 0.20199996 4279713706
0.78681892 0.015086453 0.20199996 4279713706
0.78650486 0.013727836 0.20299995 4279713706
0.78650486 0.012259252 0.20299995 4279713706
0.78650486 0.010790668 0.20299995 4279713706
0.78650486 0.0093220845 0.20299995 4279713706
0.78619081 0.007976532 0.20399994 4279713706
0.78619081 0.0065105557 0.20399994 4279713706
0.78619081 0.005044587 0.20399994 4279713706
0.78619081 0.0035786107 0.20399994 4279713706
0.78619081 0.0021126419 0.20399994 4279713706
0.78619081 0.00064666569 0.20399994 4279713706
0.78619081 -0.0008193031 0.20399994 4279713706
0.78619081 -0.0022852793 0.20399994 4279713706
0.78619081 -0.0037512481 0.20399994 4279713706
0.78619081 -0.0052172244 0.20399994 4279713706
0.78619081 -0.0066832006 0.20399994 4279713706
0.78619081 -0.0081491694 0.20399994 4279713706
0.78619081 -0.0096151456 0.20399994 4279713706
0.78650486 -0.01123812 0.20299995 4279713706
0.78650486 -0.012706704 0.20299995 4279713706
0.78650486 -0.014175281 0.20299995 4279713706
0.78681892 -0.015808716 0.20199996 4279713706
0.78681892 -0.017279916 0.20199996 4279713706
0.78681892 -0.018751115 0.20199996 4279713706
0.78681892 -0.020222314 0.20199996 4279713706
0.78713298 -0.02186881 0.20099998 4279713706
0.78713298 -0.023342624 0.20099998 4279713706
0.78713298 -0.024816431 0.20099998 4279713706
0.78713298 -0.026290245 0.20099998 4279713706
0.78713298 -0.02776406 0.20099998 4279713706
0.78713298 -0.029237866 0.20099998 4279713706
0.78681892 -0.030520707 0.20199996 4279713706
0.78681892 -0.031991906 0.20199996 4279713706
0.78681892 -0.033463106 0.20199996 4279713706
0.78681892 -0.034934305 0.20199996 4279713706
0.78650486 -0.036204077 0.20299995 4279713706
0.78650486 -0.037672661 0.20299995 4279713706
0.78650486 -0.039141245 0.20299995 4279713706
0.78619081 -0.040400565 0.20399994 4279713706
0.78619081 -0.041866541 0.20399994 4279713706
0.78619081 -0.04333251 0.20399994 4279713706
0.78619081 -0.044798486 0.20399994 4279713706
0.78619081 -0.046264455 0.20399994 4279713706
0.78619081 -0.047730424 0.20399994 4279713706
0.78619081 -0.0491964 0.20399994 4279713706
0.78619081 -0.050662361 0.20399994 4279713706
0.78619081 -0.052128337 0.20399994 4279713706
0.78619081 -0.053594314 0.20399994 4279713706
0.78619081 -0.05506029 0.20399994 4279713706
0.78619081 -0.056526251 0.20399994 4279713706
0.78619081 -0.057992227 0.20399994 4279713706
0.78650486 -0.059701435 0.20299995 4279713706
0.78650486 -0.061170034 0.20299995 4279713706
0.78650486 -0.062638618 0.20299995 4279713706
0.78650486 -0.064107202 0.20299995 4279713706
0.78650486 -0.065575786 0.20299995 4279713706
0.78650486 -0.06704437 0.20299995 4279713706
0.78650486 -0.068512954 0.20299995 4279713706
0.78650486 -0.069981538 0.20299995 4279713706
0.78650486 -0.071450122 0.20299995 4279713706
0.78681892 -0.073185466 0.20199996 4279713706
0.78713298 -0.074926041 0.20099998 4279713706
0.78776109 -0.076943822 0.19899994 4279713706
0.78838927 -0.078972064 0.19699997 4279713706
0.78933144 -0.081287958 0.19399995 4279713706
0.79027367 -0.083619528 0.19099998 4279713706
0.79090178 -0.085684352 0.18899995 4281309962
0.79184401 -0.088044696 0.18599993 4281309962
0.79247212 -0.090133019 0.18399996 4281309962
0.79278618 -0.091941528 0.18299997 4281309962
0.79341429 -0.094048165 0.18099993 4281309962
0.79341429 -0.095574252 0.18099993 4281309962
0.79372835 -0.097398423 0.17999995 4281309962
0.79372835 -0.098927133 0.17999995 4281309962
0.79467058 -0.10136583 0.17699999 4281309962
0.79624093 -0.10443216 0.17199993 4281309962
0.79749715 -0.10721601 0.16799998 4281309962
0.7990675 -0.11033199 0.16299993 4281309962
0.80063784 -0.11347406 0.15799993 4281309962
0.80252218 -0.11695869 0.15199995 4281309962
0.80409253 -0.12015565 0.14699996 4281309962
0.80566287 -0.12337875 0.14199996 4281309962
0.80341196 0.062259261 0.14399993 4286450754
0.80185473 0.06076825 0.14899993 4286450754
0.79811728 0.05792778 0.16099995 4286450754
0.79656005 0.056520388 0.16599995 4286450754
0.79469132 0.055175934 0.17199993 4281309962
0.79313403 0.053823423 0.17699999 4281309962
0.79251111 0.052370951 0.17899996 4281309962
0.79251111 0.050839648 0.17899996 4281309962
0.79219967 0.049355604 0.17999995 4281309962
0.79188824 0.047876783 0.18099993 4281309962
0.79157674 0.046403192 0.18199998 4281309962
0.79157674 0.044879731 0.18199998 4281309962
0.79157674 0.04335627 0.18199998 4281309962
0.79157674 0.041832812 0.18199998 4281309962
0.79157674 0.040309351 0.18199998 4281309962
0.79126531 0.038851433 0.18299997 4281309962
0.79126531 0.037330586 0.18299997 4281309962
0.79126531 0.035809737 0.18299997 4281309962
0.79126531 0.034288887 0.18299997 4281309962
0.79095387 0.032844037 0.18399996 4281309962
0.79033101 0.031483024 0.18599993 4281309962
0.78970808 0.030132473 0.18799996 4279713706
0.78908515 0.02879237 0.18999994 4279713706
0.78846228 0.027462721 0.19199997 4279713706
0.78783935 0.026143517 0.19399995 4279713706
0.78721642 0.024834774 0.19599998 4279713706
0.78659356 0.023536481 0.19799995 4279713706
0.78628206 0.022151731 0.19899994 4279713706
0.78597063 0.020772215 0.19999999 4279713706
0.78565919 0.019397922 0.20099998 4279713706
0.78565919 0.017924108 0.20099998 4279713706
0.7853477 0.016557653 0.20199996 4279713706
0.7853477 0.015086453 0.20199996 4279713706
0.78503627 0.013727836 0.20299995 4279713706
0.78503627 0.012259252 0.20299995 4279713706
0.78503627 0.010790668 0.20299995 4279713706
0.78472483 0.0094425082 0.20399994 4279713706
0.78472483 0.007976532 0.20399994 4279713706
0.78472483 0.0065105557 0.20399994 4279713706
0.78472483 0.005044587 0.20399994 4279713706
0.78472483 0.0035786107 0.20399994 4279713706
0.78472483 0.0021126419 0.20399994 4279713706
0.78472483 0.00064666569 0.20399994 4279713706
0.78472483 -0.0008193031 0.20399994 4279713706
0.78472483 -0.0022852793 0.20399994 4279713706
0.78472483 -0.0037512481 0.20399994 4279713706
0.78472483 -0.0052172244 0.20399994 4279713706
0.78472483 -0.0066832006 0.20399994 4279713706
0.78472483 -0.0081491694 0.20399994 4279713706
0.78472483 -0.0096151456 0.20399994 4279713706
0.78472483 -0.011081114 0.20399994 4279713706
0.78472483 -0.012547091 0.20399994 4279713706
0.78503627 -0.014175281 0.20299995 4279713706
0.78503627 -0.015643872 0.20299995 4279713706
0.78503627 -0.017112456 0.20299995 4279713706
0.78503627 -0.01858104 0.20299995 4279713706
0.7853477 -0.020222314 0.20199996 4279713706
0.7853477 -0.021693513 0.20199996 4279713706
0.7853477 -0.023164712 0.20199996 4279713706
0.7853477 -0.024635911 0.20199996 4279713706
0.7853477 -0.02610711 0.20199996 4279713706
0.7853477 -0.027578309 0.20199996 4279713706
0.7853477 -0.029049508 0.20199996 4279713706
0.7853477 -0.030520707 0.20199996 4279713706
0.7853477 -0.031991906 0.20199996 4279713706
0.78503627 -0.033266902 0.20299995 4279713706
0.78503627 -0.034735486 0.20299995 4279713706
0.78503627 -0.036204077 0.20299995 4279713706
0.78503627 -0.037672661 0.20299995 4279713706
0.78472483 -0.038934588 0.20399994 4279713706
0.78472483 -0.040400565 0.20399994 4279713706
0.78472483 -0.041866541 0.20399994 4279713706
0.78472483 -0.04333251 0.20399994 4279713706
0.78472483 -0.044798486 0.20399994 4279713706
0.78472483 -0.046264455 0.20399994 4279713706
0.78472483 -0.047730424 0.20399994 4279713706
0.78472483 -0.0491964 0.20399994 4279713706
0.78472483 -0.050662361 0.20399994 4279713706
0.78472483 -0.052128337 0.20399994 4279713706
0.78472483 -0.053594314 0.20399994 4279713706
0.78472483 -0.05506029 0.20399994 4279713706
0.78472483 -0.056526251 0.20399994 4279713706
0.78472483 -0.057992227 0.20399994 4279713706
0.78472483 -0.059458204 0.20399994 4279713706
0.78472483 -0.06092418 0.20399994 4279713706
0.78472483 -0.062390156 0.20399994 4279713706
0.78472483 -0.063856132 0.20399994 4279713706
0.78503627 -0.065575786 0.20299995 4279713706
0.78503627 -0.06704437 0.20299995 4279713706
0.78503627 -0.068512954 0.20299995 4279713706
0.78503627 -0.069981538 0.20299995 4279713706
0.78503627 -0.071450122 0.20299995 4279713706
0.7853477 -0.073185466 0.20199996 4279713706
0.78565919 -0.074926041 0.20099998 4279713706
0.78628206 -0.076943822 0.19899994 4279713706
0.78690499 -0.078972064 0.19699997 4279713706
0.78783935 -0.081287958 0.19399995 4279713706
0.78877372 -0.083619528 0.19099998 4279713706
0.78939664 -0.085684352 0.18899995 4281309962
0.79033101 -0.088044696 0.18599993 4281309962
0.79095387 -0.090133019 0.18399996 4281309962
0.79157674 -0.092231803 0.18199998 4281309962
0.79188824 -0.094048165 0.18099993 4281309962
0.79219967 -0.095869742 0.17999995 4281309962
0.79219967 -0.097398423 0.17999995 4281309962
0.79219967 -0.098927133 0.17999995 4281309962
0.79344547 -0.10166918 0.17599994 4281309962
0.79469132 -0.10443216 0.17199993 4281309962
0.79593712 -0.10721601 0.16799998 4281309962
0.79749441 -0.11033199 0.16299993 4281309962
0.79905164 -0.11347406 0.15799993 4281309962
0.80060887 -0.11664229 0.15299994 4281309962
0.8024776 -0.12015565 0.14699996 4281309962
0.80403489 -0.12337875 0.14199996 4281309962
0.80178922 0.062259261 0.14399993 4286450754
0.79993618 0.060794603 0.14999998 4286450754
0.79653895 0.05792778 0.16099995 4286450754
0.7946859 0.056554578 0.16699994 4286450754
0.79314172 0.055175934 0.17199993 4281309962
0.79159749 0.053823423 0.17699999 4281309962
0.79097986 0.052370951 0.17899996 4281309962
0.79067099 0.050884292 0.17999995 4281309962
0.79067099 0.049355604 0.17999995 4281309962
0.79036218 0.047876783 0.18099993 4281309962
0.79005331 0.046403192 0.18199998 4281309962
0.79005331 0.044879731 0.18199998 4281309962
0.79005331 0.04335627 0.18199998 4281309962
0.79005331 0.041832812 0.18199998 4281309962
0.79005331 0.040309351 0.18199998 4281309962
0.79005331 0.038785886 0.18199998 4281309962
0.79005331 0.037262425 0.18199998 4281309962
0.79005331 0.035738964 0.18199998 4281309962
0.7897445 0.034288887 0.18299997 4281309962
0.78943563 0.032844037 0.18399996 4281309962
0.78912681 0.031404413 0.18499994 4281309962
0.78820026 0.030132473 0.18799996 4279713706
0.78758264 0.02879237 0.18999994 4279713706
0.78727376 0.027376268 0.19099998 4279713706
0.78665608 0.026054453 0.19299996 4279713706
0.7860384 0.024743091 0.19499993 4279713706
0.78542072 0.02344219 0.19699997 4279713706
0.7851119 0.022054829 0.19799995 4279713706
0.78480303 0.020672694 0.19899994 4279713706
0.78449416 0.019295789 0.19999999 4279713706
0.78418535 0.017924108 0.20099998 4279713706
0.78418535 0.016450297 0.20099998 4279713706
0.78387654 0.015086453 0.20199996 4279713706
0.78356767 0.013727836 0.20299995 4279713706
0.78356767 0.012259252 0.20299995 4279713706
0.78356767 0.010790668 0.20299995 4279713706
0.78325886 0.0094425082 0.20399994 4279713706
0.78325886 0.007976532 0.20399994 4279713706
0.78325886 0.0065105557 0.20399994 4279713706
0.78325886 0.005044587 0.20399994 4279713706
0.78325886 0.0035786107 0.20399994 4279713706
0.78325886 0.0021126419 0.20399994 4279713706
0.78325886 0.00064666569 0.20399994 4279713706
0.78325886 -0.0008193031 0.20399994 4279713706
0.78294998 -0.0021439418 0.20499998 4279713706
0.78294998 -0.0036073029 0.20499998 4279713706
0.78294998 -0.005070664 0.20499998 4279713706
0.78294998 -0.0065340251 0.20499998 4279713706
0.78294998 -0.0079973787 0.20499998 4279713706
0.78325886 -0.0096151456 0.20399994 4279713706
0.78325886 -0.011081114 0.20399994 4279713706
0.78325886 -0.012547091 0.20399994 4279713706
0.78325886 -0.014013052 0.20399994 4279713706
0.78325886 -0.015479028 0.20399994 4279713706
0.78356767 -0.017112456 0.20299995 4279713706
0.78356767 -0.01858104 0.20299995 4279713706
0.78356767 -0.020049632 0.20299995 4279713706
0.78356767 -0.021518216 0.20299995 4279713706
0.78356767 -0.022986799 0.20299995 4279713706
0.78356767 -0.024455383 0.20299995 4279713706
0.78356767 -0.025923975 0.20299995 4279713706
0.78356767 -0.027392559 0.20299995 4279713706
0.78356767 -0.028861143 0.20299995 4279713706
0.78356767 -0.030329727 0.20299995 4279713706
0.78356767 -0.031798318 0.20299995 4279713706
0.78356767 -0.033266902 0.20299995 4279713706
0.78356767 -0.034735486 0.20299995 4279713706
0.78325886 -0.036002643 0.20399994 4279713706
0.78325886 -0.03746862 0.20399994 4279713706
0.78325886 -0.038934588 0.20399994 4279713706
0.78325886 -0.040400565 0.20399994 4279713706
0.78325886 -0.041866541 0.20399994 4279713706
0.78294998 -0.043118007 0.20499998 4279713706
0.78294998 -0.044581361 0.20499998 4279713706
0.78294998 -0.046044722 0.20499998 4279713706
0.78325886 -0.047730424 0.20399994 4279713706
0.78325886 -0.0491964 0.20399994 4279713706
0.78325886 -0.050662361 0.20399994 4279713706
0.78325886 -0.052128337 0.20399994 4279713706
0.78325886 -0.053594314 0.20399994 4279713706
0.78325886 -0.05506029 0.20399994 4279713706
0.78325886 -0.056526251 0.20399994 4279713706
0.78325886 -0.057992227 0.20399994 4279713706
0.78325886 -0.059458204 0.20399994 4279713706
0.78325886 -0.06092418 0.20399994 4279713706
0.78325886 -0.062390156 0.20399994 4279713706
0.78325886 -0.063856132 0.20399994 4279713706
0.78325886 -0.065322094 0.20399994 4279713706
0.78325886 -0.066788055 0.20399994 4279713706
0.78325886 -0.068254046 0.20399994 4279713706
0.78356767 -0.069981538 0.20299995 4279713706
0.78356767 -0.071450122 0.20299995 4279713706
0.78356767 -0.072918706 0.20299995 4279713706
0.78418535 -0.074926041 0.20099998 4279713706
0.78480303 -0.076943822 0.19899994 4279713706
0.78572953 -0.079246663 0.19599998 4279713706
0.78634727 -0.081287958 0.19399995 4279713706
0.78727376 -0.083619528 0.19099998 4279713706
0.78789145 -0.085684352 0.18899995 4281309962
0.78881794 -0.088044696 0.18599993 4281309962
0.7897445 -0.090420671 0.18299997 4281309962
0.79005331 -0.092231803 0.18199998 4281309962
0.79036218 -0.094048165 0.18099993 4281309962
0.79067099 -0.095869742 0.17999995 4281309962
0.79067099 -0.097398423 0.17999995 4281309962
0.79067099 -0.098927133 0.17999995 4281309962
0.79190636 -0.10166918 0.17599994 4281309962
0.79314172 -0.10443216 0.17199993 4281309962
0.79437709 -0.10721601 0.16799998 4281309962
0.79561239 -0.11002079 0.16399997 4281309962
0.79746544 -0.11347406 0.15799993 4281309962
0.79870081 -0.11632586 0.15399998 4281309962
0.80055386 -0.11983664 0.14799994 4281309962
0.80209804 -0.12305712 0.14299995 4281309962
0.80016649 0.062259261 0.14399993 4286450754
0.79832911 0.060794603 0.14999998 4286450754
0.79496062 0.05792778 0.16099995 4286450754
0.79312325 0.056554578 0.16699994 4286450754
0.79189837 0.055139132 0.17099994 4281309962
0.79036725 0.053784005 0.17599994 4281309962
0.78975475 0.052328922 0.17799997 4281309962
0.78914231 0.050884292 0.17999995 4281309962
0.78914231 0.049355604 0.17999995 4281309962
0.78883612 0.047876783 0.18099993 4281309962
0.78852987 0.046403192 0.18199998 4281309962
0.78852987 0.044879731 0.18199998 4281309962
0.78852987 0.04335627 0.18199998 4281309962
0.78852987 0.041832812 0.18199998 4281309962
0.78852987 0.040309351 0.18199998 4281309962
0.78852987 0.038785886 0.18199998 4281309962
0.78852987 0.037262425 0.18199998 4281309962
0.78852987 0.035738964 0.18199998 4281309962
0.78852987 0.034215502 0.18199998 4281309962
0.78822362 0.032768037 0.18299997 4281309962
0.78761119 0.031404413 0.18499994 4281309962
0.787305 0.029970016 0.18599993 4279713706
0.78638625 0.028708532 0.18899995 4279713706
0.78608006 0.027289812 0.18999994 4279713706
0.78546762 0.025965389 0.19199997 4279713706
0.78485513 0.024651416 0.19399995 4279713706
0.78424269 0.023347899 0.19599998 4279713706
0.78363025 0.022054829 0.19799995 4279713706
0.783324 0.020672694 0.19899994 4279713706
0.78301775 0.019295789 0.19999999 4279713706
0.78271157 0.017924108 0.20099998 4279713706
0.78240532 0.016557653 0.20199996 4279713706
0.78240532 0.015086453 0.20199996 4279713706
0.78209913 0.013727836 0.20299995 4279713706
0.78209913 0.012259252 0.20299995 4279713706
0.78179288 0.010908477 0.20399994 4279713706
0.78179288 0.0094425082 0.20399994 4279713706
0.78179288 0.007976532 0.20399994 4279713706
0.78179288 0.0065105557 0.20399994 4279713706
0.78179288 0.005044587 0.20399994 4279713706
0.78179288 0.0035786107 0.20399994 4279713706
0.78148663 0.002246134 0.20499998 4279713706
0.78148663 0.0007827729 0.20499998 4279713706
0.78148663 -0.00068058074 0.20499998 4279713706
0.78148663 -0.0021439418 0.20499998 4279713706
0.78148663 -0.0036073029 0.20499998 4279713706
0.78148663 -0.005070664 0.20499998 4279713706
0.78148663 -0.0065340251 0.20499998 4279713706
0.78148663 -0.0079973787 0.20499998 4279713706
0.78148663 -0.0094607398 0.20499998 4279713706
0.78179288 -0.011081114 0.20399994 4279713706
0.78179288 -0.012547091 0.20399994 4279713706
0.78179288 -0.014013052 0.20399994 4279713706
0.78179288 -0.015479028 0.20399994 4279713706
0.78209913 -0.017112456 0.20299995 4279713706
0.78209913 -0.01858104 0.20299995 4279713706
0.78209913 -0.020049632 0.20299995 4279713706
0.78209913 -0.021518216 0.20299995 4279713706
0.78209913 -0.022986799 0.20299995 4279713706
0.78209913 -0.024455383 0.20299995 4279713706
0.78209913 -0.025923975 0.20299995 4279713706
0.78209913 -0.027392559 0.20299995 4279713706
0.78209913 -0.028861143 0.20299995 4279713706
0.78209913 -0.030329727 0.20299995 4279713706
0.78209913 -0.031798318 0.20299995 4279713706
0.78179288 -0.033070698 0.20399994 4279713706
0.78179288 -0.034536675 0.20399994 4279713706
0.78179288 -0.036002643 0.20399994 4279713706
0.78179288 -0.03746862 0.20399994 4279713706
0.78179288 -0.038934588 0.20399994 4279713706
0.78179288 -0.040400565 0.20399994 4279713706
0.78148663 -0.041654646 0.20499998 4279713706
0.78148663 -0.043118007 0.20499998 4279713706
0.78148663 -0.044581361 0.20499998 4279713706
0.78148663 -0.046044722 0.20499998 4279713706
0.78179288 -0.047730424 0.20399994 4279713706
0.78179288 -0.0491964 0.20399994 4279713706
0.78179288 -0.050662361 0.20399994 4279713706
0.78179288 -0.052128337 0.20399994 4279713706
0.78179288 -0.053594314 0.20399994 4279713706
0.78179288 -0.05506029 0.20399994 4279713706
0.78179288 -0.056526251 0.20399994 4279713706
0.78179288 -0.057992227 0.20399994 4279713706
0.78179288 -0.059458204 0.20399994 4279713706
0.78179288 -0.06092418 0.20399994 4279713706
0.78179288 -0.062390156 0.20399994 4279713706
0.78179288 -0.063856132 0.20399994 4279713706
0.78179288 -0.065322094 0.20399994 4279713706
0.78179288 -0.066788055 0.20399994 4279713706
0.78179288 -0.068254046 0.20399994 4279713706
0.78179288 -0.069720007 0.20399994 4279713706
0.78209913 -0.071450122 0.20299995 4279713706
0.78209913 -0.072918706 0.20299995 4279713706
0.78271157 -0.074926041 0.20099998 4279713706
0.783324 -0.076943822 0.19899994 4279713706
0.78424269 -0.079246663 0.19599998 4279713706
0.78485513 -0.081287958 0.19399995 4279713706
0.78577381 -0.083619528 0.19099998 4279713706
0.78638625 -0.085684352 0.18899995 4281309962
0.787305 -0.088044696 0.18599993 4281309962
0.78822362 -0.090420671 0.18299997 4281309962
0.78852987 -0.092231803 0.18199998 4281309962
0.78883612 -0.094048165 0.18099993 4281309962
0.78914231 -0.095869742 0.17999995 4281309962
0.78914231 -0.097398423 0.17999995 4281309962
0.78914231 -0.098927133 0.17999995 4281309962
0.790061 -0.10136583 0.17699999 4281309962
0.79128587 -0.10412619 0.17299998 4281309962
0.792817 -0.10721601 0.16799998 4281309962
0.79404193 -0.11002079 0.16399997 4281309962
0.79557306 -0.11316026 0.15899998 4281309962
0.79710418 -0.11632586 0.15399998 4281309962
0.79863536 -0.11951763 0.14899993 4281309962
0.80047268 -0.12305712 0.14299995 4281309962
0.79854369 0.062259261 0.14399993 4286450754
0.79672199 0.060794603 0.14999998 4286450754
0.79520392 0.059332337 0.15499997 4286450754
0.79338229 0.05792778 0.16099995 4286450754
0.79186422 0.056520388 0.16599995 4286450754
0.79034615 0.055139132 0.17099994 4281309962
0.78882807 0.053784005 0.17599994 4281309962
0.78822082 0.052328922 0.17799997 4281309962
0.78761363 0.050884292 0.17999995 4281309962
0.78761363 0.049355604 0.17999995 4281309962
0.78731 0.047876783 0.18099993 4281309962
0.78731 0.04635071 0.18099993 4281309962
0.78700638 0.044879731 0.18199998 4281309962
0.78700638 0.04335627 0.18199998 4281309962
0.78700638 0.041832812 0.18199998 4281309962
0.78700638 0.040309351 0.18199998 4281309962
0.78700638 0.038785886 0.18199998 4281309962
0.78700638 0.037262425 0.18199998 4281309962
0.78700638 0.035738964 0.18199998 4281309962
0.78700638 0.034215502 0.18199998 4281309962
0.78700638 0.032692041 0.18199998 4281309962
0.78639913 0.031325802 0.18399996 4281309962
0.78579193 0.029970016 0.18599993 4279713706
0.78518474 0.028624695 0.18799996 4279713706
0.78488111 0.027203362 0.18899995 4279713706
0.78427386 0.025876325 0.19099998 4279713706
0.78366661 0.024559736 0.19299996 4279713706
0.78275579 0.023347899 0.19599998 4279713706
0.7821486 0.022054829 0.19799995 4279713706
0.78184497 0.020672694 0.19899994 4279713706
0.78154135 0.019295789 0.19999999 4279713706
0.78123772 0.017924108 0.20099998 4279713706
0.7809341 0.016557653 0.20199996 4279713706
0.7809341 0.015086453 0.20199996 4279713706
0.78063053 0.013727836 0.20299995 4279713706
0.78063053 0.012259252 0.20299995 4279713706
0.7803269 0.010908477 0.20399994 4279713706
0.7803269 0.0094425082 0.20399994 4279713706
0.7803269 0.007976532 0.20399994 4279713706
0.7803269 0.0065105557 0.20399994 4279713706
0.7803269 0.005044587 0.20399994 4279713706
0.7803269 0.0035786107 0.20399994 4279713706
0.78002328 0.002246134 0.20499998 4279713706
0.78002328 0.0007827729 0.20499998 4279713706
0.78002328 -0.00068058074 0.20499998 4279713706
0.78002328 -0.0021439418 0.20499998 4279713706
0.78002328 -0.0036073029 0.20499998 4279713706
0.78002328 -0.005070664 0.20499998 4279713706
0.78002328 -0.0065340251 0.20499998 4279713706
0.78002328 -0.0079973787 0.20499998 4279713706
0.7803269 -0.0096151456 0.20399994 4279713706
0.7803269 -0.011081114 0.20399994 4279713706
0.7803269 -0.012547091 0.20399994 4279713706
0.7803269 -0.014013052 0.20399994 4279713706
0.7803269 -0.015479028 0.20399994 4279713706
0.7803269 -0.016944997 0.20399994 4279713706
0.78063053 -0.01858104 0.20299995 4279713706
0.78063053 -0.020049632 0.20299995 4279713706
0.78063053 -0.021518216 0.20299995 4279713706
0.78063053 -0.022986799 0.20299995 4279713706
0.78063053 -0.024455383 0.20299995 4279713706
0.78063053 -0.025923975 0.20299995 4279713706
0.78063053 -0.027392559 0.20299995 4279713706
0.78063053 -0.028861143 0.20299995 4279713706
0.78063053 -0.030329727 0.20299995 4279713706
0.7803269 -0.03160473 0.20399994 4279713706
0.7803269 -0.033070698 0.20399994 4279713706
0.7803269 -0.034536675 0.20399994 4279713706
0.7803269 -0.036002643 0.20399994 4279713706
0.7803269 -0.03746862 0.20399994 4279713706
0.78002328 -0.038727924 0.20499998 4279713706
0.78002328 -0.040191285 0.20499998 4279713706
0.78002328 -0.041654646 0.20499998 4279713706
0.78002328 -0.043118007 0.20499998 4279713706
0.78002328 -0.044581361 0.20499998 4279713706
0.78002328 -0.046044722 0.20499998 4279713706
0.78002328 -0.047508076 0.20499998 4279713706
0.7803269 -0.0491964 0.20399994 4279713706
0.7803269 -0.050662361 0.20399994 4279713706
0.7803269 -0.052128337 0.20399994 4279713706
0.7803269 -0.053594314 0.20399994 4279713706
0.7803269 -0.05506029 0.20399994 4279713706
0.7803269 -0.056526251 0.20399994 4279713706
0.7803269 -0.057992227 0.20399994 4279713706
0.7803269 -0.059458204 0.20399994 4279713706
0.7803269 -0.06092418 0.20399994 4279713706
0.7803269 -0.062390156 0.20399994 4279713706
0.78002328 -0.063605033 0.20499998 4279713706
0.7803269 -0.065322094 0.20399994 4279713706
0.7803269 -0.066788055 0.20399994 4279713706
0.7803269 -0.068254046 0.20399994 4279713706
0.7803269 -0.069720007 0.20399994 4279713706
0.7803269 -0.071185984 0.20399994 4279713706
0.78063053 -0.072918706 0.20299995 4279713706
0.78123772 -0.074926041 0.20099998 4279713706
0.78184497 -0.076943822 0.19899994 4279713706
0.78275579 -0.079246663 0.19599998 4279713706
0.78336304 -0.081287958 0.19399995 4279713706
0.78427386 -0.083619528 0.19099998 4279713706
0.78488111 -0.085684352 0.18899995 4281309962
0.78579193 -0.088044696 0.18599993 4281309962
0.78639913 -0.090133019 0.18399996 4281309962
0.78700638 -0.092231803 0.18199998 4281309962
0.78700638 -0.093755268 0.18199998 4281309962
0.78731 -0.095574252 0.18099993 4281309962
0.78761363 -0.097398423 0.17999995 4281309962
0.78761363 -0.098927133 0.17999995 4281309962
0.78822082 -0.10106248 0.17799997 4281309962
0.78943527 -0.10382024 0.17399997 4281309962
0.79095334 -0.10690743 0.16899997 4281309962
0.79247141 -0.11002079 0.16399997 4281309962
0.79368585 -0.11284647 0.15999997 4281309962
0.79520392 -0.11600945 0.15499997 4281309962
0.79702562 -0.11951763 0.14899993 4281309962
0.79854369 -0.12273549 0.14399993 4281309962
0.79692096 0.062259261 0.14399993 4286450754
0.79541594 0.06076825 0.14899993 4286450754
0.79360992 0.059332337 0.15499997 4286450754
0.79210496 0.057896204 0.15999997 4286450754
0.79029894 0.056520388 0.16599995 4286450754
0.78879392 0.055139132 0.17099994 4281309962
0.78758991 0.053744588 0.17499995 4281309962
0.7866869 0.052328922 0.17799997 4281309962
0.78608495 0.050884292 0.17999995 4281309962
0.78608495 0.049355604 0.17999995 4281309962
0.78578395 0.047876783 0.18099993 4281309962
0.78548294 0.046403192 0.18199998 4281309962
0.78548294 0.044879731 0.18199998 4281309962
0.78548294 0.04335627 0.18199998 4281309962
0.78578395 0.041772489 0.18099993 4281309962
0.78548294 0.040309351 0.18199998 4281309962
0.78548294 0.038785886 0.18199998 4281309962
0.78548294 0.037262425 0.18199998 4281309962
0.78578395 0.035668187 0.18099993 4281309962
0.78578395 0.03414211 0.18099993 4281309962
0.78548294 0.032692041 0.18199998 4281309962
0.78518194 0.031247191 0.18299997 4281309962
0.78457993 0.02988879 0.18499994 4279713706
0.78367692 0.028624695 0.18799996 4279713706
0.78337592 0.027203362 0.18899995 4279713706
0.78277391 0.025876325 0.19099998 4279713706
0.78217196 0.024559736 0.19299996 4279713706
0.78126895 0.023347899 0.19599998 4279713706
0.78066695 0.022054829 0.19799995 4279713706
0.78036594 0.020672694 0.19899994 4279713706
0.78006494 0.019295789 0.19999999 4279713706
0.77976394 0.017924108 0.20099998 4279713706
0.77946293 0.016557653 0.20199996 4279713706
0.77946293 0.015086453 0.20199996 4279713706
0.77946293 0.013615251 0.20199996 4279713706
0.77916193 0.012259252 0.20299995 4279713706
0.77916193 0.010790668 0.20299995 4279713706
0.77886093 0.0094425082 0.20399994 4279713706
0.77886093 0.007976532 0.20399994 4279713706
0.77886093 0.0065105557 0.20399994 4279713706
0.77886093 0.005044587 0.20399994 4279713706
0.77886093 0.0035786107 0.20399994 4279713706
0.77886093 0.0021126419 0.20399994 4279713706
0.77886093 0.00064666569 0.20399994 4279713706
0.77886093 -0.0008193031 0.20399994 4279713706
0.77886093 -0.0022852793 0.20399994 4279713706
0.77886093 -0.0037512481 0.20399994 4279713706
0.77855992 -0.005070664 0.20499998 4279713706
0.77855992 -0.0065340251 0.20499998 4279713706
0.77886093 -0.0081491694 0.20399994 4279713706
0.77886093 -0.0096151456 0.20399994 4279713706
0.77886093 -0.011081114 0.20399994 4279713706
0.77886093 -0.012547091 0.20399994 4279713706
0.77886093 -0.014013052 0.20399994 4279713706
0.77886093 -0.015479028 0.20399994 4279713706
0.77886093 -0.016944997 0.20399994 4279713706
0.77916193 -0.01858104 0.20299995 4279713706
0.77916193 -0.020049632 0.20299995 4279713706
0.77916193 -0.021518216 0.20299995 4279713706
0.77916193 -0.022986799 0.20299995 4279713706
0.77916193 -0.024455383 0.20299995 4279713706
0.77916193 -0.025923975 0.20299995 4279713706
0.77916193 -0.027392559 0.20299995 4279713706
0.77916193 -0.028861143 0.20299995 4279713706
0.77886093 -0.030138753 0.20399994 4279713706
0.77886093 -0.03160473 0.20399994 4279713706
0.77886093 -0.033070698 0.20399994 4279713706
0.77886093 -0.034536675 0.20399994 4279713706
0.77886093 -0.036002643 0.20399994 4279713706
0.77886093 -0.03746862 0.20399994 4279713706
0.77886093 -0.038934588 0.20399994 4279713706
0.77886093 -0.040400565 0.20399994 4279713706
0.77886093 -0.041866541 0.20399994 4279713706
0.77855992 -0.043118007 0.20499998 4279713706
0.77855992 -0.044581361 0.20499998 4279713706
0.77855992 -0.046044722 0.20499998 4279713706
0.77886093 -0.047730424 0.20399994 4279713706
0.77886093 -0.0491964 0.20399994 4279713706
0.77886093 -0.050662361 0.20399994 4279713706
0.77886093 -0.052128337 0.20399994 4279713706
0.77886093 -0.053594314 0.20399994 4279713706
0.77886093 -0.05506029 0.20399994 4279713706
0.77886093 -0.056526251 0.20399994 4279713706
0.77886093 -0.057992227 0.20399994 4279713706
0.77855992 -0.059214957 0.20499998 4279713706
0.77855992 -0.060678311 0.20499998 4279713706
0.77855992 -0.062141664 0.20499998 4279713706
0.77855992 -0.063605033 0.20499998 4279713706
0.77855992 -0.065068386 0.20499998 4279713706
0.77855992 -0.06653174 0.20499998 4279713706
0.77886093 -0.068254046 0.20399994 4279713706
0.77886093 -0.069720007 0.20399994 4279713706
0.77886093 -0.071185984 0.20399994 4279713706
0.77916193 -0.072918706 0.20299995 4279713706
0.77976394 -0.074926041 0.20099998 4279713706
0.78036594 -0.076943822 0.19899994 4279713706
0.78096795 -0.078972064 0.19699997 4279713706
0.78156996 -0.081010751 0.19499993 4279713706
0.78247297 -0.083339714 0.19199997 4279713706
0.78307498 -0.085401915 0.18999994 4281309962
0.78397793 -0.087759636 0.18699998 4281309962
0.78488094 -0.090133019 0.18399996 4281309962
0.78518194 -0.091941528 0.18299997 4281309962
0.78548294 -0.093755268 0.18199998 4281309962
0.78578395 -0.095574252 0.18099993 4281309962
0.78578395 -0.09710031 0.18099993 4281309962
0.78578395 -0.098626398 0.18099993 4281309962
0.7866869 -0.10106248 0.17799997 4281309962
0.78789091 -0.10382024 0.17399997 4281309962
0.78909492 -0.10659888 0.16999996 4281309962
0.79029894 -0.10939843 0.16599995 4281309962
0.79180396 -0.11253268 0.16099995 4281309962
0.79330891 -0.11569306 0.15599996 4281309962
0.79511493 -0.11919858 0.14999998 4281309962
0.79692096 -0.12273549 0.14399993 4281309962
0.79499978 0.062282998 0.14499998 4286450754
0.79350781 0.060794603 0.14999998 4286450754
0.79201591 0.059332337 0.15499997 4286450754
0.79052401 0.057896204 0.15999997 4286450754
0.78873366 0.056520388 0.16599995 4286450754
0.7872417 0.055139132 0.17099994 4281309962
0.78604817 0.053744588 0.17499995 4281309962
0.78515303 0.052328922 0.17799997 4281309962
0.78455627 0.050884292 0.17999995 4281309962
0.78455627 0.049355604 0.17999995 4281309962
0.78425789 0.047876783 0.18099993 4281309962
0.78425789 0.04635071 0.18099993 4281309962
0.78425789 0.044824634 0.18099993 4281309962
0.78425789 0.043298561 0.18099993 4281309962
0.78425789 0.041772489 0.18099993 4281309962
0.78425789 0.040246412 0.18099993 4281309962
0.78425789 0.038720336 0.18099993 4281309962
0.78425789 0.037194263 0.18099993 4281309962
0.78425789 0.035668187 0.18099993 4281309962
0.78455627 0.034068726 0.17999995 4281309962
0.78395945 0.032692041 0.18199998 4281309962
0.78366107 0.031247191 0.18299997 4281309962
0.78306431 0.02988879 0.18499994 4279713706
0.78246754 0.028540853 0.18699998 4279713706
0.78187072 0.027203362 0.18899995 4279713706
0.78127396 0.025876325 0.19099998 4279713706
0.7806772 0.024559736 0.19299996 4279713706
0.78008044 0.023253601 0.19499993 4279713706
0.7791853 0.022054829 0.19799995 4279713706
0.77888691 0.020672694 0.19899994 4279713706
0.77858847 0.019295789 0.19999999 4279713706
0.77829009 0.017924108 0.20099998 4279713706
0.77799171 0.016557653 0.20199996 4279713706
0.77799171 0.015086453 0.20199996 4279713706
0.77799171 0.013615251 0.20199996 4279713706
0.77769333 0.012259252 0.20299995 4279713706
0.77769333 0.010790668 0.20299995 4279713706
0.77769333 0.0093220845 0.20299995 4279713706
0.77739495 0.007976532 0.20399994 4279713706
0.77739495 0.0065105557 0.20399994 4279713706
0.77739495 0.005044587 0.20399994 4279713706
0.77739495 0.0035786107 0.20399994 4279713706
0.77739495 0.0021126419 0.20399994 4279713706
0.77739495 0.00064666569 0.20399994 4279713706
0.77739495 -0.0008193031 0.20399994 4279713706
0.77739495 -0.0022852793 0.20399994 4279713706
0.77739495 -0.0037512481 0.20399994 4279713706
0.77739495 -0.0052172244 0.20399994 4279713706
0.77739495 -0.0066832006 0.20399994 4279713706
0.77739495 -0.0081491694 0.20399994 4279713706
0.77739495 -0.0096151456 0.20399994 4279713706
0.77739495 -0.011081114 0.20399994 4279713706
0.77739495 -0.012547091 0.20399994 4279713706
0.77739495 -0.014013052 0.20399994 4279713706
0.77739495 -0.015479028 0.20399994 4279713706
0.77769333 -0.017112456 0.20299995 4279713706
0.77769333 -0.01858104 0.20299995 4279713706
0.77769333 -0.020049632 0.20299995 4279713706
0.77769333 -0.021518216 0.20299995 4279713706
