# .PCD v0.7 - Point Cloud Data file format
VERSION 0.7
FIELDS x y z rgb
SIZE 4 4 4 4
TYPE F F F U
COUNT 1 1 1 1
WIDTH 1050
HEIGHT 1
VIEWPOINT 0 0 0 1 0 0 0
POINTS 1050
DATA ascii
0.7415278 0.052455008 0.18099993 4289652353
0.74130255 0.050973579 0.18199998 4289652353
0.74130255 0.049450118 0.18199998 4289652353
0.74130255 0.047926657 0.18199998 4289652353
0.74130255 0.046403192 0.18199998 4289652353
0.74130255 0.044879731 0.18199998 4289652353
0.74130255 0.04335627 0.18199998 4289652353
0.7410773 0.041893132 0.18299997 4289652353
0.74085212 0.040435217 0.18399996 4289652353
0.74085212 0.038916979 0.18399996 4289652353
0.74062693 0.037466906 0.18499994 4289652353
0.74040169 0.036022056 0.18599993 4289652353
0.74040169 0.034509044 0.18599993 4289652353
0.73995125 0.033148039 0.18799996 4289652353
0.73972601 0.031718869 0.18899995 4287045710
0.73950082 0.030294921 0.18999994 4287045710
0.73950082 0.02879237 0.18999994 4287045710
0.73927557 0.027376268 0.19099998 4287045710
0.73927557 0.025876325 0.19099998 4287045710
0.73905039 0.024468061 0.19199997 4287045710
0.73905039 0.022970729 0.19199997 4287045710
0.73882514 0.021570303 0.19299996 4287045710
0.73882514 0.020075586 0.19299996 4287045710
0.73882514 0.018580869 0.19299996 4287045710
0.7385999 0.017190892 0.19399995 4287045710
0.73837471 0.015806146 0.19499993 4287045710
0.73837471 0.014316656 0.19499993 4287045710
0.73837471 0.012827165 0.19499993 4287045710
0.73814946 0.011452876 0.19599998 4287045710
0.73814946 0.0099660009 0.19599998 4287045710
0.73814946 0.0084791258 0.19599998 4287045710
0.73814946 0.0069922432 0.19599998 4287045710
0.73814946 0.0055053681 0.19599998 4287045710
0.73814946 0.004018493 0.19599998 4287045710
0.73814946 0.0025316104 0.19599998 4287045710
0.73814946 0.0010447353 0.19599998 4287045710
0.73814946 -0.00044214725 0.19599998 4287045710
0.73814946 -0.0019290224 0.19599998 4287045710
0.73814946 -0.0034158975 0.19599998 4287045710
0.73814946 -0.0049027801 0.19599998 4287045710
0.73814946 -0.0063896552 0.19599998 4287045710
0.73814946 -0.0078765303 0.19599998 4287045710
0.73792428 -0.0092116296 0.19699997 4287045710
0.73792428 -0.010695897 0.19699997 4287045710
0.73792428 -0.012180164 0.19699997 4287045710
0.73792428 -0.013664424 0.19699997 4287045710
0.73792428 -0.015148684 0.19699997 4287045710
0.73792428 -0.016632944 0.19699997 4287045710
0.73792428 -0.018117212 0.19699997 4287045710
0.73792428 -0.019601479 0.19699997 4287045710
0.73792428 -0.021085739 0.19699997 4287045710
0.73792428 -0.022570007 0.19699997 4287045710
0.73792428 -0.024054274 0.19699997 4287045710
0.73814946 -0.025719061 0.19599998 4287045710
0.73814946 -0.027205937 0.19599998 4287045710
0.73814946 -0.028692819 0.19599998 4287045710
0.73814946 -0.030179694 0.19599998 4287045710
0.73814946 -0.031666569 0.19599998 4287045710
0.73814946 -0.033153452 0.19599998 4287045710
0.73814946 -0.034640327 0.19599998 4287045710
0.73814946 -0.036127202 0.19599998 4287045710
0.73837471 -0.037815526 0.19499993 4287045710
0.73837471 -0.039305016 0.19499993 4287045710
0.73837471 -0.040794507 0.19499993 4287045710
0.73837471 -0.042283997 0.19499993 4287045710
0.73837471 -0.043773487 0.19499993 4287045710
0.73837471 -0.045262977 0.19499993 4287045710
0.73837471 -0.046752468 0.19499993 4287045710
0.73837471 -0.048241965 0.19499993 4287045710
0.73837471 -0.049731441 0.19499993 4287045710
0.73837471 -0.051220931 0.19499993 4287045710
0.73837471 -0.052710421 0.19499993 4287045710
0.73837471 -0.054199912 0.19499993 4287045710
0.73837471 -0.055689402 0.19499993 4287045710
0.73814946 -0.056943484 0.19599998 4287045710
0.73814946 -0.058430366 0.19599998 4287045710
0.73814946 -0.059917249 0.19599998 4287045710
0.73814946 -0.061404116 0.19599998 4287045710
0.73814946 -0.062890999 0.19599998 4287045710
0.73814946 -0.064377882 0.19599998 4287045710
0.73814946 -0.065864764 0.19599998 4287045710
0.73814946 -0.067351632 0.19599998 4287045710
0.73814946 -0.068838499 0.19599998 4287045710
0.73792428 -0.070066474 0.19699997 4287045710
0.73792428 -0.071550734 0.19699997 4287045710
0.73792428 -0.073034994 0.19699997 4287045710
0.73792428 -0.074519254 0.19699997 4287045710
0.73814946 -0.076272897 0.19599998 4287045710
0.73837471 -0.078031771 0.19499993 4287045710
0.7385999 -0.07979586 0.19399995 4287045710
0.73882514 -0.081565164 0.19299996 4289652353
0.73905039 -0.083339714 0.19199997 4289652353
0.73927557 -0.085119464 0.19099998 4289652353
0.73950082 -0.086904489 0.18999994 4289652353
0.73972601 -0.088694699 0.18899995 4289652353
0.73995125 -0.090490155 0.18799996 4289652353
0.74017644 -0.092290811 0.18699998 4289652353
0.74040169 -0.094096728 0.18599993 4289652353
0.74062693 -0.095907845 0.18499994 4289652353
0.74085212 -0.097724207 0.18399996 4289652353
0.74130255 -0.099849112 0.18199998 4289652353
0.74242866 -0.10290236 0.17699999 4289652353
0.74355471 -0.10598174 0.17199993 4289652353
0.74490607 -0.10939843 0.16599995 4289652353
0.74603212 -0.11253268 0.16099995 4289652353
0.74738348 -0.11600945 0.15499997 4284112262
0.74850953 -0.11919858 0.14999998 4284112262
0.74986088 -0.12273549 0.14399993 4284112262
0.74712509 0.06076825 0.14899993 4283372493
0.74222773 0.056691337 0.17099994 4283372493
0.74066949 0.055396751 0.17799997 4289652353
0.7402243 0.053941667 0.17999995 4289652353
0.7402243 0.052412979 0.17999995 4289652353
0.74000168 0.050928935 0.18099993 4289652353
0.73977911 0.049450118 0.18199998 4289652353
0.73977911 0.047926657 0.18199998 4289652353
0.73977911 0.046403192 0.18199998 4289652353
0.73977911 0.044879731 0.18199998 4289652353
0.73955649 0.043413978 0.18299997 4289652353
0.73955649 0.041893132 0.18299997 4289652353
0.73955649 0.040372282 0.18299997 4289652353
0.73933387 0.038916979 0.18399996 4289652353
0.73933387 0.037398744 0.18399996 4289652353
0.7391113 0.035951283 0.18499994 4289652353
0.73888868 0.034509044 0.18599993 4289652353
0.73866606 0.033072039 0.18699998 4289652353
0.73844343 0.031640254 0.18799996 4289652353
0.73822087 0.030213699 0.18899995 4287045710
0.73799825 0.02879237 0.18999994 4287045710
0.73799825 0.027289812 0.18999994 4287045710
0.73777562 0.025876325 0.19099998 4287045710
0.73777562 0.024376381 0.19099998 4287045710
0.737553 0.022970729 0.19199997 4287045710
0.737553 0.0214734 0.19199997 4287045710
0.737553 0.019976068 0.19199997 4287045710
0.73733044 0.018580869 0.19299996 4287045710
0.73733044 0.017086152 0.19299996 4287045710
0.73733044 0.015591431 0.19299996 4287045710
0.73710781 0.014206685 0.19399995 4287045710
0.73688519 0.012827165 0.19499993 4287045710
0.73688519 0.011337675 0.19499993 4287045710
0.73688519 0.0098481849 0.19499993 4287045710
0.73688519 0.0083586946 0.19499993 4287045710
0.73688519 0.0068692043 0.19499993 4287045710
0.73688519 0.0053797141 0.19499993 4287045710
0.73688519 0.0038902238 0.19499993 4287045710
0.73688519 0.0024007261 0.19499993 4287045710
0.73688519 0.00091123581 0.19499993 4287045710
0.73688519 -0.00057825446 0.19499993 4287045710
0.73688519 -0.0020677447 0.19499993 4287045710
0.73688519 -0.003557235 0.19499993 4287045710
0.73688519 -0.0050467253 0.19499993 4287045710
0.73688519 -0.0065362155 0.19499993 4287045710
0.73666263 -0.0078765303 0.19599998 4287045710
0.73666263 -0.0093634129 0.19599998 4287045710
0.73666263 -0.010850288 0.19599998 4287045710
0.73666263 -0.012337171 0.19599998 4287045710
0.73666263 -0.013824046 0.19599998 4287045710
0.73666263 -0.015310913 0.19599998 4287045710
0.73666263 -0.016797796 0.19599998 4287045710
0.73666263 -0.018284671 0.19599998 4287045710
0.73666263 -0.019771546 0.19599998 4287045710
0.73666263 -0.021258429 0.19599998 4287045710
0.73666263 -0.022745304 0.19599998 4287045710
0.73666263 -0.024232179 0.19599998 4287045710
0.73666263 -0.025719061 0.19599998 4287045710
0.73666263 -0.027205937 0.19599998 4287045710
0.73666263 -0.028692819 0.19599998 4287045710
0.73666263 -0.030179694 0.19599998 4287045710
0.73688519 -0.031857558 0.19499993 4287045710
0.73688519 -0.033347048 0.19499993 4287045710
0.73688519 -0.034836538 0.19499993 4287045710
0.73688519 -0.036326028 0.19499993 4287045710
0.73688519 -0.037815526 0.19499993 4287045710
0.73688519 -0.039305016 0.19499993 4287045710
0.73688519 -0.040794507 0.19499993 4287045710
0.73710781 -0.042493261 0.19399995 4287045710
0.73710781 -0.043985367 0.19399995 4287045710
0.73710781 -0.045477472 0.19399995 4287045710
0.73710781 -0.046969578 0.19399995 4287045710
0.73710781 -0.048461683 0.19399995 4287045710
0.73710781 -0.049953781 0.19399995 4287045710
0.73710781 -0.051445879 0.19399995 4287045710
0.73710781 -0.052937992 0.19399995 4287045710
0.73710781 -0.05443009 0.19399995 4287045710
0.73688519 -0.055689402 0.19499993 4287045710
0.73688519 -0.057178892 0.19499993 4287045710
0.73688519 -0.058668397 0.19499993 4287045710
0.73688519 -0.060157888 0.19499993 4287045710
0.73688519 -0.061647378 0.19499993 4287045710
0.73688519 -0.063136868 0.19499993 4287045710
0.73688519 -0.064626358 0.19499993 4287045710
0.73688519 -0.066115849 0.19499993 4287045710
0.73688519 -0.067605339 0.19499993 4287045710
0.73688519 -0.069094814 0.19499993 4287045710
0.73688519 -0.07058432 0.19499993 4287045710
0.73666263 -0.071812265 0.19599998 4287045710
0.73666263 -0.073299147 0.19599998 4287045710
0.73666263 -0.074786015 0.19599998 4287045710
0.73688519 -0.076542281 0.19499993 4287045710
0.73710781 -0.078303747 0.19399995 4287045710
0.73733044 -0.080070458 0.19299996 4287045710
0.737553 -0.08184237 0.19199997 4289652353
0.737553 -0.083339714 0.19199997 4289652353
0.73777562 -0.085119464 0.19099998 4289652353
0.73799825 -0.086904489 0.18999994 4289652353
0.73844343 -0.088982351 0.18799996 4289652353
0.73866606 -0.090780415 0.18699998 4289652353
0.73888868 -0.092583708 0.18599993 4289652353
0.73888868 -0.094096728 0.18599993 4289652353
0.7391113 -0.095907845 0.18499994 4289652353
0.73933387 -0.097724207 0.18399996 4289652353
0.73977911 -0.099849112 0.18199998 4289652353
0.74066949 -0.10259641 0.17799997 4289652353
0.74200517 -0.10598174 0.17199993 4289652353
0.74311817 -0.10908725 0.16699994 4289652353
0.74445379 -0.11253268 0.16099995 4289652353
0.74578941 -0.11600945 0.15499997 4284112262
0.74712509 -0.11951763 0.14899993 4284112262
0.74823809 -0.12273549 0.14399993 4284112262
0.74595535 0.060715549 0.14699996 4283372493
0.74067557 0.056691337 0.17099994 4283372493
0.73913562 0.055396751 0.17799997 4289652353
0.73869562 0.053941667 0.17999995 4289652353
0.73847562 0.052455008 0.18099993 4289652353
0.73847562 0.050928935 0.18099993 4289652353
0.73825562 0.049450118 0.18199998 4289652353
0.73825562 0.047926657 0.18199998 4289652353
0.73825562 0.046403192 0.18199998 4289652353
0.73825562 0.044879731 0.18199998 4289652353
0.73803562 0.043413978 0.18299997 4289652353
0.73803562 0.041893132 0.18299997 4289652353
0.73803562 0.040372282 0.18299997 4289652353
0.73781562 0.038916979 0.18399996 4289652353
0.73781562 0.037398744 0.18399996 4289652353
0.73759568 0.035951283 0.18499994 4289652353
0.73759568 0.03443566 0.18499994 4289652353
0.73737568 0.032996036 0.18599993 4289652353
0.73715568 0.031561643 0.18699998 4289652353
0.73693568 0.030132473 0.18799996 4287045710
0.73671567 0.028708532 0.18899995 4287045710
0.73649567 0.027289812 0.18999994 4287045710
0.73649567 0.025787257 0.18999994 4287045710
0.73627567 0.024376381 0.19099998 4287045710
0.73627567 0.022876438 0.19099998 4287045710
0.73605573 0.0214734 0.19199997 4287045710
0.73605573 0.019976068 0.19199997 4287045710
0.73605573 0.018478736 0.19199997 4287045710
0.73583567 0.017086152 0.19299996 4287045710
0.73583567 0.015591431 0.19299996 4287045710
0.73583567 0.014096715 0.19299996 4287045710
0.73583567 0.012602001 0.19299996 4287045710
0.73561573 0.011222482 0.19399995 4287045710
0.73561573 0.0097303763 0.19399995 4287045710
0.73561573 0.0082382709 0.19399995 4287045710
0.73561573 0.0067461655 0.19399995 4287045710
0.73561573 0.0052540675 0.19399995 4287045710
0.73561573 0.0037619621 0.19399995 4287045710
0.73561573 0.0022698566 0.19399995 4287045710
0.73561573 0.00077775121 0.19399995 4287045710
0.73561573 -0.00071435422 0.19399995 4287045710
0.73561573 -0.0022064596 0.19399995 4287045710
0.73561573 -0.0036985651 0.19399995 4287045710
0.73539573 -0.0050467253 0.19499993 4287045710
0.73539573 -0.0065362155 0.19499993 4287045710
0.73539573 -0.0080257058 0.19499993 4287045710
0.73539573 -0.0095151961 0.19499993 4287045710
0.73539573 -0.011004694 0.19499993 4287045710
0.73539573 -0.012494184 0.19499993 4287045710
0.73539573 -0.013983674 0.19499993 4287045710
0.73539573 -0.015473157 0.19499993 4287045710
0.73539573 -0.016962647 0.19499993 4287045710
0.73539573 -0.018452138 0.19499993 4287045710
0.73517573 -0.019771546 0.19599998 4287045710
0.73517573 -0.021258429 0.19599998 4287045710
0.73539573 -0.022920609 0.19499993 4287045710
0.73539573 -0.024410106 0.19499993 4287045710
0.73539573 -0.025899597 0.19499993 4287045710
0.73539573 -0.027389087 0.19499993 4287045710
0.73539573 -0.028878577 0.19499993 4287045710
0.73539573 -0.030368067 0.19499993 4287045710
0.73539573 -0.031857558 0.19499993 4287045710
0.73539573 -0.033347048 0.19499993 4287045710
0.73561573 -0.035032742 0.19399995 4287045710
0.73561573 -0.036524847 0.19399995 4287045710
0.73561573 -0.038016953 0.19399995 4287045710
0.73583567 -0.0397131 0.19299996 4287045710
0.73583567 -0.041207813 0.19299996 4287045710
0.73583567 -0.042702533 0.19299996 4287045710
0.73583567 -0.044197246 0.19299996 4287045710
0.73583567 -0.045691967 0.19299996 4287045710
0.73583567 -0.04718668 0.19299996 4287045710
0.73583567 -0.048681401 0.19299996 4287045710
0.73583567 -0.050176106 0.19299996 4287045710
0.73583567 -0.051670827 0.19299996 4287045710
0.73583567 -0.053165548 0.19299996 4287045710
0.73583567 -0.054660268 0.19299996 4287045710
0.73583567 -0.056154974 0.19299996 4287045710
0.73583567 -0.057649694 0.19299996 4287045710
0.73583567 -0.059144415 0.19299996 4287045710
0.73583567 -0.060639136 0.19299996 4287045710
0.73583567 -0.062133856 0.19299996 4287045710
0.73583567 -0.063628562 0.19299996 4287045710
0.73583567 -0.065123282 0.19299996 4287045710
0.73583567 -0.066618003 0.19299996 4287045710
0.73583567 -0.068112724 0.19299996 4287045710
0.73583567 -0.069607429 0.19299996 4287045710
0.73583567 -0.07110215 0.19299996 4287045710
0.73583567 -0.072596855 0.19299996 4287045710
0.73561573 -0.073827438 0.19399995 4287045710
0.73561573 -0.075319536 0.19399995 4287045710
0.73583567 -0.077081017 0.19299996 4287045710
0.73583567 -0.078575738 0.19299996 4287045710
0.73605573 -0.080345057 0.19199997 4287045710
0.73627567 -0.082119577 0.19099998 4289652353
0.73627567 -0.083619528 0.19099998 4289652353
0.73649567 -0.085401915 0.18999994 4289652353
0.73671567 -0.087189533 0.18899995 4289652353
0.73693568 -0.088982351 0.18799996 4289652353
0.73715568 -0.090780415 0.18699998 4289652353
0.73737568 -0.092583708 0.18599993 4289652353
0.73737568 -0.094096728 0.18599993 4289652353
0.73759568 -0.095907845 0.18499994 4289652353
0.73781562 -0.097724207 0.18399996 4289652353
0.73803562 -0.099545769 0.18299997 4289652353
0.73913562 -0.10259641 0.17799997 4289652353
0.74045557 -0.10598174 0.17199993 4289652353
0.74155551 -0.10908725 0.16699994 4289652353
0.74287546 -0.11253268 0.16099995 4289652353
0.7441954 -0.11600945 0.15499997 4284112262
0.74551535 -0.11951763 0.14899993 4284112262
0.74661535 -0.12273549 0.14399993 4284112262
0.74086237 0.057990931 0.16299993 4283372493
0.73934072 0.05665715 0.16999996 4283372493
0.73781908 0.055359952 0.17699999 4289652353
0.73716694 0.053941667 0.17999995 4289652353
0.73716694 0.052412979 0.17999995 4289652353
0.73694956 0.050928935 0.18099993 4289652353
0.73673213 0.049450118 0.18199998 4289652353
0.73673213 0.047926657 0.18199998 4289652353
0.73673213 0.046403192 0.18199998 4289652353
0.73673213 0.044879731 0.18199998 4289652353
0.73673213 0.04335627 0.18199998 4289652353
0.73651481 0.041893132 0.18299997 4289652353
0.73651481 0.040372282 0.18299997 4289652353
0.73651481 0.038851433 0.18299997 4289652353
0.73629737 0.037398744 0.18399996 4289652353
0.73629737 0.03588051 0.18399996 4289652353
0.73608005 0.03443566 0.18499994 4289652353
0.73586267 0.032996036 0.18599993 4289652353
0.73586267 0.031483024 0.18599993 4289652353
0.73564529 0.030051246 0.18699998 4287045710
0.73542786 0.028624695 0.18799996 4287045710
0.73521054 0.027203362 0.18899995 4287045710
0.7349931 0.025787257 0.18999994 4287045710
0.7349931 0.024284698 0.18999994 4287045710
0.73477572 0.022876438 0.19099998 4287045710
0.73477572 0.021376494 0.19099998 4287045710
0.73477572 0.019876551 0.19099998 4287045710
0.73455834 0.018478736 0.19199997 4287045710
0.73455834 0.016981408 0.19199997 4287045710
0.73455834 0.015484076 0.19199997 4287045710
0.73455834 0.013986744 0.19199997 4287045710
0.73434097 0.012602001 0.19299996 4287045710
0.73434097 0.011107288 0.19299996 4287045710
0.73434097 0.0096125677 0.19299996 4287045710
0.73434097 0.0081178471 0.19299996 4287045710
0.73434097 0.006623134 0.19299996 4287045710
0.73434097 0.0051284134 0.19299996 4287045710
0.73434097 0.0036337003 0.19299996 4287045710
0.73434097 0.0021389797 0.19299996 4287045710
0.73434097 0.00064426661 0.19299996 4287045710
0.73434097 -0.00085045397 0.19299996 4287045710
0.73434097 -0.0023451746 0.19299996 4287045710
0.73434097 -0.0038398877 0.19299996 4287045710
0.73434097 -0.0053346083 0.19299996 4287045710
0.73434097 -0.0068293214 0.19299996 4287045710
0.73434097 -0.008324042 0.19299996 4287045710
0.73412359 -0.0096669793 0.19399995 4287045710
0.73412359 -0.011159085 0.19399995 4287045710
0.73412359 -0.01265119 0.19399995 4287045710
0.73390627 -0.013983674 0.19499993 4287045710
0.73390627 -0.015473157 0.19499993 4287045710
0.73390627 -0.016962647 0.19499993 4287045710
0.73390627 -0.018452138 0.19499993 4287045710
0.73390627 -0.019941628 0.19499993 4287045710
0.73390627 -0.021431118 0.19499993 4287045710
0.73390627 -0.022920609 0.19499993 4287045710
0.73390627 -0.024410106 0.19499993 4287045710
0.73390627 -0.025899597 0.19499993 4287045710
0.73390627 -0.027389087 0.19499993 4287045710
0.73390627 -0.028878577 0.19499993 4287045710
0.73412359 -0.030556433 0.19399995 4287045710
0.73412359 -0.032048531 0.19399995 4287045710
0.73412359 -0.033540636 0.19399995 4287045710
0.73434097 -0.035228945 0.19299996 4287045710
0.73434097 -0.036723658 0.19299996 4287045710
0.73434097 -0.038218379 0.19299996 4287045710
0.73434097 -0.0397131 0.19299996 4287045710
0.73434097 -0.041207813 0.19299996 4287045710
0.73434097 -0.042702533 0.19299996 4287045710
0.73455834 -0.044409126 0.19199997 4287045710
0.73455834 -0.045906462 0.19199997 4287045710
0.73455834 -0.04740379 0.19199997 4287045710
0.73455834 -0.048901118 0.19199997 4287045710
0.73455834 -0.050398447 0.19199997 4287045710
0.73455834 -0.051895775 0.19199997 4287045710
0.73455834 -0.053393103 0.19199997 4287045710
0.73455834 -0.054890431 0.19199997 4287045710
0.73455834 -0.05638776 0.19199997 4287045710
0.73455834 -0.057885088 0.19199997 4287045710
0.73455834 -0.059382431 0.19199997 4287045710
0.73455834 -0.060879759 0.19199997 4287045710
0.73455834 -0.062377088 0.19199997 4287045710
0.73455834 -0.063874416 0.19199997 4287045710
0.73455834 -0.065371744 0.19199997 4287045710
0.73455834 -0.066869088 0.19199997 4287045710
0.73455834 -0.068366416 0.19199997 4287045710
0.73455834 -0.069863729 0.19199997 4287045710
0.73455834 -0.071361072 0.19199997 4287045710
0.73455834 -0.072858386 0.19199997 4287045710
0.73455834 -0.074355729 0.19199997 4287045710
0.73455834 -0.075853057 0.19199997 4287045710
0.73455834 -0.077350385 0.19199997 4287045710
0.73455834 -0.078847714 0.19199997 4287045710
0.73477572 -0.080619641 0.19099998 4289652353
0.73477572 -0.082119577 0.19099998 4289652353
0.7349931 -0.083899371 0.18999994 4289652353
0.7349931 -0.085401915 0.18999994 4289652353
0.73521054 -0.087189533 0.18899995 4289652353
0.73542786 -0.088982351 0.18799996 4289652353
0.73564529 -0.090780415 0.18699998 4289652353
0.73586267 -0.092583708 0.18599993 4289652353
0.73586267 -0.094096728 0.18599993 4289652353
0.73608005 -0.095907845 0.18499994 4289652353
0.73629737 -0.097724207 0.18399996 4289652353
0.73651481 -0.099545769 0.18299997 4289652353
0.7376017 -0.10259641 0.17799997 4289652353
0.73868859 -0.10567316 0.17299998 4289652353
0.73999286 -0.10908725 0.16699994 4289652353
0.74129713 -0.11253268 0.16099995 4289652353
0.74260139 -0.11600945 0.15499997 4284112262
0.74390566 -0.11951763 0.14899993 4284112262
0.74499261 -0.12273549 0.14399993 4284112262
0.73778588 0.05665715 0.16999996 4283372493
0.73649728 0.055323146 0.17599994 4289652353
0.73563826 0.053941667 0.17999995 4289652353
0.73563826 0.052412979 0.17999995 4289652353
0.73542345 0.050928935 0.18099993 4289652353
0.73542345 0.049402863 0.18099993 4289652353
0.73520869 0.047926657 0.18199998 4289652353
0.73520869 0.046403192 0.18199998 4289652353
0.73520869 0.044879731 0.18199998 4289652353
0.73520869 0.04335627 0.18199998 4289652353
0.73499393 0.041893132 0.18299997 4289652353
0.73499393 0.040372282 0.18299997 4289652353
0.73499393 0.038851433 0.18299997 4289652353
0.73499393 0.037330586 0.18299997 4289652353
0.73477918 0.03588051 0.18399996 4289652353
0.73477918 0.034362275 0.18399996 4289652353
0.73456442 0.032920036 0.18499994 4289652353
0.73434961 0.031483024 0.18599993 4287045710
0.73434961 0.029970016 0.18599993 4287045710
0.7339201 0.028624695 0.18799996 4287045710
0.7339201 0.02711691 0.18799996 4287045710
0.73370534 0.025698192 0.18899995 4287045710
0.73349059 0.024284698 0.18999994 4287045710
0.73349059 0.022782143 0.18999994 4287045710
0.73349059 0.021279585 0.18999994 4287045710
0.73327577 0.019876551 0.19099998 4287045710
0.73327577 0.018376607 0.19099998 4287045710
0.73327577 0.016876664 0.19099998 4287045710
0.73327577 0.015376721 0.19099998 4287045710
0.73327577 0.013876773 0.19099998 4287045710
0.73306102 0.012489416 0.19199997 4287045710
0.73306102 0.010992087 0.19199997 4287045710
0.73306102 0.0094947591 0.19199997 4287045710
0.73306102 0.0079974309 0.19199997 4287045710
0.73306102 0.0065000951 0.19199997 4287045710
0.73306102 0.0050027668 0.19199997 4287045710
0.73306102 0.0035054386 0.19199997 4287045710
0.73306102 0.0020081103 0.19199997 4287045710
0.73306102 0.00051077455 0.19199997 4287045710
0.73306102 -0.00098655373 0.19199997 4287045710
0.73306102 -0.002483882 0.19199997 4287045710
0.73306102 -0.0039812177 0.19199997 4287045710
0.73306102 -0.005478546 0.19199997 4287045710
0.73306102 -0.0069758743 0.19199997 4287045710
0.73284626 -0.008324042 0.19299996 4287045710
0.73284626 -0.0098187551 0.19299996 4287045710
0.73284626 -0.011313476 0.19299996 4287045710
0.73284626 -0.012808196 0.19299996 4287045710
0.73284626 -0.014302909 0.19299996 4287045710
0.73284626 -0.015797623 0.19299996 4287045710
0.73284626 -0.017292336 0.19299996 4287045710
0.7326315 -0.018619597 0.19399995 4287045710
0.7326315 -0.020111702 0.19399995 4287045710
0.7326315 -0.021603808 0.19399995 4287045710
0.7326315 -0.023095906 0.19399995 4287045710
0.73284626 -0.024765924 0.19299996 4287045710
0.73284626 -0.026260637 0.19299996 4287045710
0.73284626 -0.027755357 0.19299996 4287045710
0.73284626 -0.029250078 0.19299996 4287045710
0.73284626 -0.030744791 0.19299996 4287045710
0.73284626 -0.032239512 0.19299996 4287045710
0.73284626 -0.033734225 0.19299996 4287045710
0.73306102 -0.035425149 0.19199997 4287045710
0.73306102 -0.036922477 0.19199997 4287045710
0.73306102 -0.038419805 0.19199997 4287045710
0.73306102 -0.039917141 0.19199997 4287045710
0.73306102 -0.041414469 0.19199997 4287045710
0.73306102 -0.042911798 0.19199997 4287045710
0.73306102 -0.044409126 0.19199997 4287045710
0.73327577 -0.046120957 0.19099998 4287045710
0.73327577 -0.0476209 0.19099998 4287045710
0.73327577 -0.049120836 0.19099998 4287045710
0.73327577 -0.050620772 0.19099998 4287045710
0.73327577 -0.052120723 0.19099998 4287045710
0.73327577 -0.053620659 0.19099998 4287045710
0.73327577 -0.05512061 0.19099998 4287045710
0.73327577 -0.056620546 0.19099998 4287045710
0.73327577 -0.058120497 0.19099998 4287045710
0.73327577 -0.059620433 0.19099998 4287045710
0.73349059 -0.061361022 0.18999994 4287045710
0.73349059 -0.062863581 0.18999994 4287045710
0.73349059 -0.064366139 0.18999994 4287045710
0.73349059 -0.065868683 0.18999994 4287045710
0.73349059 -0.067371257 0.18999994 4287045710
0.73349059 -0.0688738 0.18999994 4287045710
0.73349059 -0.070376359 0.18999994 4287045710
0.73349059 -0.071878918 0.18999994 4287045710
0.73349059 -0.073381461 0.18999994 4287045710
0.73327577 -0.074619867 0.19099998 4287045710
0.73327577 -0.076119803 0.19099998 4287045710
0.73327577 -0.077619754 0.19099998 4287045710
0.73349059 -0.079391696 0.18999994 4287045710
0.73349059 -0.080894254 0.18999994 4287045710
0.73349059 -0.082396813 0.18999994 4289652353
0.73370534 -0.0841792 0.18899995 4289652353
0.73370534 -0.085684352 0.18899995 4289652353
0.7339201 -0.087474577 0.18799996 4289652353
0.73413485 -0.089270018 0.18699998 4289652353
0.73434961 -0.091070719 0.18599993 4289652353
0.73434961 -0.092583708 0.18599993 4289652353
0.73456442 -0.094392233 0.18499994 4289652353
0.73456442 -0.095907845 0.18499994 4289652353
0.73477918 -0.097724207 0.18399996 4289652353
0.73499393 -0.099545769 0.18299997 4289652353
0.73606777 -0.10259641 0.17799997 4289652353
0.73714161 -0.10567316 0.17299998 4289652353
0.7384302 -0.10908725 0.16699994 4289652353
0.73971879 -0.11253268 0.16099995 4289652353
0.74100739 -0.11600945 0.15499997 4284112262
0.74229598 -0.11951763 0.14899993 4284112262
0.74336982 -0.12273549 0.14399993 4284112262
0.73644322 0.05662296 0.16899997 4283372493
0.73495817 0.055323146 0.17599994 4289652353
0.73410952 0.053941667 0.17999995 4289652353
0.73410952 0.052412979 0.17999995 4289652353
0.73389739 0.050928935 0.18099993 4289652353
0.73389739 0.049402863 0.18099993 4289652353
0.73368526 0.047926657 0.18199998 4289652353
0.73368526 0.046403192 0.18199998 4289652353
0.73368526 0.044879731 0.18199998 4289652353
0.73368526 0.04335627 0.18199998 4289652353
0.73347306 0.041893132 0.18299997 4289652353
0.73347306 0.040372282 0.18299997 4289652353
0.73347306 0.038851433 0.18299997 4289652353
0.73347306 0.037330586 0.18299997 4289652353
0.73347306 0.035809737 0.18299997 4289652353
0.73326093 0.034362275 0.18399996 4289652353
0.73326093 0.032844037 0.18399996 4289652353
0.7330488 0.031404413 0.18499994 4287045710
0.7328366 0.029970016 0.18599993 4287045710
0.7328366 0.028457012 0.18599993 4287045710
0.73262447 0.027030457 0.18699998 4287045710
0.73241234 0.025609128 0.18799996 4287045710
0.73241234 0.024101343 0.18799996 4287045710
0.73220015 0.022687852 0.18899995 4287045710
0.73220015 0.021182682 0.18899995 4287045710
0.73220015 0.019677512 0.18899995 4287045710
0.73198801 0.018274471 0.18999994 4287045710
0.73198801 0.016771916 0.18999994 4287045710
0.73198801 0.015269358 0.18999994 4287045710
0.73198801 0.013766803 0.18999994 4287045710
0.73198801 0.012264244 0.18999994 4287045710
0.73177588 0.010876894 0.19099998 4287045710
0.73177588 0.0093769506 0.19099998 4287045710
0.73177588 0.0078770071 0.19099998 4287045710
0.73177588 0.0063770637 0.19099998 4287045710
0.73177588 0.0048771203 0.19099998 4287045710
0.73177588 0.0033771768 0.19099998 4287045710
0.73177588 0.0018772334 0.19099998 4287045710
0.73177588 0.00037728995 0.19099998 4287045710
0.73177588 -0.0011226535 0.19099998 4287045710
0.73177588 -0.0026225969 0.19099998 4287045710
0.73177588 -0.0041225404 0.19099998 4287045710
0.73177588 -0.0056224838 0.19099998 4287045710
0.73156369 -0.0069758743 0.19199997 4287045710
0.73156369 -0.00847321 0.19199997 4287045710
0.73156369 -0.0099705383 0.19199997 4287045710
0.73156369 -0.011467867 0.19199997 4287045710
0.73156369 -0.012965195 0.19199997 4287045710
0.73156369 -0.014462531 0.19199997 4287045710
0.73156369 -0.015959851 0.19199997 4287045710
0.73135155 -0.017292336 0.19299996 4287045710
0.73135155 -0.018787056 0.19299996 4287045710
0.73135155 -0.020281769 0.19299996 4287045710
0.73135155 -0.02177649 0.19299996 4287045710
0.73135155 -0.023271203 0.19299996 4287045710
0.73135155 -0.024765924 0.19299996 4287045710
0.73135155 -0.026260637 0.19299996 4287045710
0.73156369 -0.027938493 0.19199997 4287045710
0.73156369 -0.029435828 0.19199997 4287045710
0.73156369 -0.030933157 0.19199997 4287045710
0.73156369 -0.032430485 0.19199997 4287045710
0.73156369 -0.033927813 0.19199997 4287045710
0.73177588 -0.035621345 0.19099998 4287045710
0.73177588 -0.037121288 0.19099998 4287045710
0.73177588 -0.038621239 0.19099998 4287045710
0.73177588 -0.040121183 0.19099998 4287045710
0.73177588 -0.041621126 0.19099998 4287045710
0.73177588 -0.04312107 0.19099998 4287045710
0.73198801 -0.0448329 0.18999994 4287045710
0.73198801 -0.046335459 0.18999994 4287045710
0.73198801 -0.047838017 0.18999994 4287045710
0.73198801 -0.049340568 0.18999994 4287045710
0.73198801 -0.050843127 0.18999994 4287045710
0.73198801 -0.052345686 0.18999994 4287045710
0.73198801 -0.053848229 0.18999994 4287045710
0.73220015 -0.055580966 0.18899995 4287045710
0.73220015 -0.057086132 0.18899995 4287045710
0.73220015 -0.058591299 0.18899995 4287045710
0.73220015 -0.06009648 0.18899995 4287045710
0.73220015 -0.061601646 0.18899995 4287045710
0.73220015 -0.063106813 0.18899995 4287045710
0.73220015 -0.064611979 0.18899995 4287045710
0.73241234 -0.066365622 0.18799996 4287045710
0.73241234 -0.067873411 0.18799996 4287045710
0.73241234 -0.069381185 0.18799996 4287045710
0.73241234 -0.070888959 0.18799996 4287045710
0.73241234 -0.072396748 0.18799996 4287045710
0.73220015 -0.073642991 0.18899995 4287045710
0.73220015 -0.075148173 0.18899995 4287045710
0.73220015 -0.076653339 0.18899995 4287045710
0.73220015 -0.07815852 0.18899995 4287045710
0.73220015 -0.079663672 0.18899995 4287045710
0.73220015 -0.081168853 0.18899995 4287045710
0.73241234 -0.082951225 0.18799996 4289652353
0.73241234 -0.084459014 0.18799996 4289652353
0.73241234 -0.085966788 0.18799996 4289652353
0.73262447 -0.087759636 0.18699998 4289652353
0.7328366 -0.0895577 0.18599993 4289652353
0.7328366 -0.091070719 0.18599993 4289652353
0.7330488 -0.092876606 0.18499994 4289652353
0.7330488 -0.094392233 0.18499994 4289652353
0.73326093 -0.096205957 0.18399996 4289652353
0.73326093 -0.097724207 0.18399996 4289652353
0.73347306 -0.099545769 0.18299997 4289652353
0.73453385 -0.10259641 0.17799997 4289652353
0.73580676 -0.10598174 0.17199993 4289652353
0.73686755 -0.10908725 0.16699994 4289652353
0.73814046 -0.11253268 0.16099995 4289652353
0.73941338 -0.11600945 0.15499997 4284112262
0.7406863 -0.11951763 0.14899993 4284112262
0.74174702 -0.12273549 0.14399993 4284112262
0.74012429 0.060636498 0.14399993 4283372493
0.73362857 0.05528634 0.17499995 4289652353
0.73258084 0.053941667 0.17999995 4289652353
0.73258084 0.052412979 0.17999995 4289652353
0.73258084 0.050884292 0.17999995 4289652353
0.73237133 0.049402863 0.18099993 4289652353
0.73216176 0.047926657 0.18199998 4289652353
0.73216176 0.046403192 0.18199998 4289652353
0.73216176 0.044879731 0.18199998 4289652353
0.73216176 0.04335627 0.18199998 4289652353
0.73195225 0.041893132 0.18299997 4289652353
0.73195225 0.040372282 0.18299997 4289652353
0.73195225 0.038851433 0.18299997 4289652353
0.73195225 0.037330586 0.18299997 4289652353
0.73195225 0.035809737 0.18299997 4289652353
0.73195225 0.034288887 0.18299997 4289652353
0.73174268 0.032844037 0.18399996 4289652353
0.73174268 0.031325802 0.18399996 4289652353
0.73153317 0.02988879 0.18499994 4287045710
0.73153317 0.028373174 0.18499994 4287045710
0.7313236 0.026944 0.18599993 4287045710
0.73111409 0.025520064 0.18699998 4287045710
0.73111409 0.024009667 0.18699998 4287045710
0.73090452 0.022593562 0.18799996 4287045710
0.73090452 0.021085776 0.18799996 4287045710
0.73090452 0.019577995 0.18799996 4287045710
0.73090452 0.018070213 0.18799996 4287045710
0.73090452 0.016562428 0.18799996 4287045710
0.73069501 0.015162002 0.18899995 4287045710
0.73069501 0.013656832 0.18899995 4287045710
0.73069501 0.012151659 0.18899995 4287045710
0.73069501 0.0106465 0.18899995 4287045710
0.73069501 0.009141326 0.18899995 4287045710
0.73048544 0.0077565759 0.18999994 4287045710
0.73048544 0.0062540248 0.18999994 4287045710
0.73048544 0.0047514662 0.18999994 4287045710
0.73048544 0.0032489076 0.18999994 4287045710
0.73048544 0.001746349 0.18999994 4287045710
0.73048544 0.00024379045 0.18999994 4287045710
0.73048544 -0.0012587607 0.18999994 4287045710
0.73048544 -0.0027613193 0.18999994 4287045710
0.73048544 -0.0042638779 0.18999994 4287045710
0.73027593 -0.0056224838 0.19099998 4287045710
0.73027593 -0.0071224272 0.19099998 4287045710
0.73027593 -0.0086223707 0.19099998 4287045710
0.73027593 -0.010122314 0.19099998 4287045710
0.73027593 -0.011622258 0.19099998 4287045710
0.73027593 -0.013122201 0.19099998 4287045710
0.73006636 -0.014462531 0.19199997 4287045710
0.73006636 -0.015959851 0.19199997 4287045710
0.73006636 -0.01745718 0.19199997 4287045710
0.73006636 -0.018954508 0.19199997 4287045710
0.73006636 -0.020451844 0.19199997 4287045710
0.73006636 -0.021949172 0.19199997 4287045710
0.73006636 -0.0234465 0.19199997 4287045710
0.73006636 -0.024943836 0.19199997 4287045710
0.73006636 -0.026441164 0.19199997 4287045710
0.73006636 -0.027938493 0.19199997 4287045710
0.73027593 -0.029621571 0.19099998 4287045710
0.73027593 -0.031121515 0.19099998 4287045710
0.73027593 -0.032621458 0.19099998 4287045710
0.73048544 -0.034315005 0.18999994 4287045710
0.73048544 -0.035817564 0.18999994 4287045710
0.73048544 -0.037320122 0.18999994 4287045710
0.73048544 -0.038822673 0.18999994 4287045710
0.73069501 -0.040529273 0.18899995 4287045710
0.73048544 -0.04182779 0.18999994 4287045710
0.73069501 -0.043539613 0.18899995 4287045710
0.73069501 -0.045044787 0.18899995 4287045710
0.73069501 -0.046549954 0.18899995 4287045710
0.73069501 -0.04805512 0.18899995 4287045710
0.73069501 -0.049560301 0.18899995 4287045710
0.73069501 -0.051065452 0.18899995 4287045710
0.73069501 -0.052570619 0.18899995 4287045710
0.73090452 -0.054303356 0.18799996 4287045710
0.73090452 -0.055811144 0.18799996 4287045710
0.73090452 -0.057318918 0.18799996 4287045710
0.73090452 -0.058826707 0.18799996 4287045710
0.73090452 -0.060334481 0.18799996 4287045710
0.73111409 -0.062082894 0.18699998 4287045710
0.73111409 -0.063593291 0.18699998 4287045710
0.73111409 -0.065103687 0.18699998 4287045710
0.7313236 -0.066862561 0.18599993 4287045710
0.7313236 -0.06837558 0.18599993 4287045710
0.7313236 -0.069888584 0.18599993 4287045710
0.7313236 -0.071401589 0.18599993 4287045710
0.7313236 -0.072914593 0.18599993 4287045710
0.73111409 -0.074166052 0.18699998 4287045710
0.73090452 -0.075412311 0.18799996 4287045710
0.73090452 -0.076920085 0.18799996 4287045710
0.73090452 -0.078427888 0.18799996 4287045710
0.73090452 -0.079935662 0.18799996 4287045710
0.73090452 -0.081443451 0.18799996 4287045710
0.73111409 -0.083228432 0.18699998 4287045710
0.73111409 -0.084738843 0.18699998 4289652353
0.7313236 -0.086531676 0.18599993 4289652353
0.7313236 -0.088044696 0.18599993 4289652353
0.73153317 -0.089845352 0.18499994 4289652353
0.73153317 -0.091360994 0.18499994 4289652353
0.73153317 -0.092876606 0.18499994 4289652353
0.73174268 -0.094687738 0.18399996 4289652353
0.73174268 -0.096205957 0.18399996 4289652353
0.73174268 -0.097724207 0.18399996 4289652353
0.73195225 -0.099545769 0.18299997 4289652353
0.73299992 -0.10259641 0.17799997 4289652353
0.73425716 -0.10598174 0.17199993 4289652353
0.73530489 -0.10908725 0.16699994 4289652353
0.73656213 -0.11253268 0.16099995 4289652353
0.73907661 -0.11951763 0.14899993 4284112262
0.74012429 -0.12273549 0.14399993 4284112262
0.7387085 0.060610149 0.14299995 4283372493
0.73208678 0.05528634 0.17499995 4289652353
0.73105216 0.053941667 0.17999995 4289652353
0.73105216 0.052412979 0.17999995 4289652353
0.73084521 0.050928935 0.18099993 4289652353
0.73063833 0.049450118 0.18199998 4289652353
0.73063833 0.047926657 0.18199998 4289652353
0.73063833 0.046403192 0.18199998 4289652353
0.73063833 0.044879731 0.18199998 4289652353
0.73043138 0.043413978 0.18299997 4289652353
0.73043138 0.041893132 0.18299997 4289652353
0.73063833 0.040309351 0.18199998 4289652353
0.73063833 0.038785886 0.18199998 4289652353
0.73063833 0.037262425 0.18199998 4289652353
0.73063833 0.035738964 0.18199998 4289652353
0.73043138 0.034288887 0.18299997 4289652353
0.73043138 0.032768037 0.18299997 4289652353
0.73043138 0.031247191 0.18299997 4289652353
0.73022449 0.029807568 0.18399996 4287045710
0.73022449 0.028289337 0.18399996 4287045710
0.73001754 0.026857551 0.18499994 4287045710
0.73001754 0.025341928 0.18499994 4287045710
0.7298106 0.023917984 0.18599993 4287045710
0.7298106 0.022404972 0.18599993 4287045710
0.7298106 0.020891964 0.18599993 4287045710
0.7298106 0.019378956 0.18599993 4287045710
0.72960365 0.017968081 0.18699998 4287045710
0.72960365 0.016457684 0.18699998 4287045710
0.72960365 0.014947288 0.18699998 4287045710
0.72960365 0.013436891 0.18699998 4287045710
0.72939676 0.01203908 0.18799996 4287045710
0.72939676 0.010531299 0.18799996 4287045710
0.72939676 0.0090235174 0.18799996 4287045710
0.72918981 0.0076361597 0.18899995 4287045710
0.72918981 0.0061309859 0.18899995 4287045710
0.72918981 0.0046258196 0.18899995 4287045710
0.72918981 0.0031206459 0.18899995 4287045710
0.72918981 0.0016154796 0.18899995 4287045710
0.72918981 0.00011030585 0.18899995 4287045710
0.72918981 -0.0013948604 0.18899995 4287045710
0.72918981 -0.0029000342 0.18899995 4287045710
0.72898293 -0.0042638779 0.18999994 4287045710
0.72898293 -0.0057664365 0.18999994 4287045710
0.72898293 -0.0072689876 0.18999994 4287045710
0.72898293 -0.0087715462 0.18999994 4287045710
0.72898293 -0.010274105 0.18999994 4287045710
0.72877598 -0.011622258 0.19099998 4287045710
0.72877598 -0.013122201 0.19099998 4287045710
0.72877598 -0.014622144 0.19099998 4287045710
0.72877598 -0.01612208 0.19099998 4287045710
0.72877598 -0.017622024 0.19099998 4287045710
0.72877598 -0.019121967 0.19099998 4287045710
0.72877598 -0.020621911 0.19099998 4287045710
0.72877598 -0.022121854 0.19099998 4287045710
0.72877598 -0.023621798 0.19099998 4287045710
0.72877598 -0.025121741 0.19099998 4287045710
0.72877598 -0.026621684 0.19099998 4287045710
0.72877598 -0.028121628 0.19099998 4287045710
0.72898293 -0.029807337 0.18999994 4287045710
0.72898293 -0.031309895 0.18999994 4287045710
0.72918981 -0.033003427 0.18899995 4287045710
0.72918981 -0.034508593 0.18899995 4287045710
0.72918981 -0.036013767 0.18899995 4287045710
0.72918981 -0.037518933 0.18899995 4287045710
0.72939676 -0.039225534 0.18799996 4287045710
0.72939676 -0.040733315 0.18799996 4287045710
0.72939676 -0.042241096 0.18799996 4287045710
0.72939676 -0.043748878 0.18799996 4287045710
0.72939676 -0.045256667 0.18799996 4287045710
0.72939676 -0.046764448 0.18799996 4287045710
0.72939676 -0.04827223 0.18799996 4287045710
0.72960365 -0.049999736 0.18699998 4287045710
0.72960365 -0.051510118 0.18699998 4287045710
0.72960365 -0.053020515 0.18699998 4287045710
0.72960365 -0.054530911 0.18699998 4287045710
0.7298106 -0.056271501 0.18599993 4287045710
0.7298106 -0.057784505 0.18599993 4287045710
0.7298106 -0.059297509 0.18599993 4287045710
0.7298106 -0.060810529 0.18599993 4287045710
0.7298106 -0.062323533 0.18599993 4287045710
0.7298106 -0.063836537 0.18599993 4287045710
0.73001754 -0.065595396 0.18499994 4287045710
0.73001754 -0.067111023 0.18499994 4287045710
0.73001754 -0.06862665 0.18499994 4287045710
0.73001754 -0.070142277 0.18499994 4287045710
0.73001754 -0.071657889 0.18499994 4287045710
0.73001754 -0.073173515 0.18499994 4287045710
0.73001754 -0.074689128 0.18499994 4287045710
0.7298106 -0.075940616 0.18599993 4287045710
0.7298106 -0.077453621 0.18599993 4287045710
0.7298106 -0.07896664 0.18599993 4287045710
0.7298106 -0.080479644 0.18599993 4287045710
0.7298106 -0.081992663 0.18599993 4287045710
0.7298106 -0.083505653 0.18599993 4287045710
0.7298106 -0.085018672 0.18599993 4289652353
0.7298106 -0.086531676 0.18599993 4289652353
0.73001754 -0.08832974 0.18499994 4289652353
0.73001754 -0.089845352 0.18499994 4289652353
0.73022449 -0.091651253 0.18399996 4289652353
0.73022449 -0.093169488 0.18399996 4289652353
0.73022449 -0.094687738 0.18399996 4289652353
0.73022449 -0.096205957 0.18399996 4289652353
0.73043138 -0.098024927 0.18299997 4289652353
0.73043138 -0.099545769 0.18299997 4289652353
0.731466 -0.10259641 0.17799997 4289652353
0.73270762 -0.10598174 0.17199993 4289652353
0.73374224 -0.10908725 0.16699994 4289652353
0.7349838 -0.11253268 0.16099995 4289652353
0.73622537 -0.11600945 0.15499997 4284112262
0.73746693 -0.11951763 0.14899993 4284112262
0.73850155 -0.12273549 0.14399993 4284112262
0.7372874 0.0605838 0.14199996 4283372493
0.73054504 0.05528634 0.17499995 4289652353
0.72952348 0.053941667 0.17999995 4289652353
0.72952348 0.052412979 0.17999995 4289652353
0.72931916 0.050928935 0.18099993 4289652353
0.72911483 0.049450118 0.18199998 4289652353
0.72911483 0.047926657 0.18199998 4289652353
0.72911483 0.046403192 0.18199998 4289652353
0.72891057 0.044934828 0.18299997 4289652353
0.72891057 0.043413978 0.18299997 4289652353
0.72891057 0.041893132 0.18299997 4289652353
0.72911483 0.040309351 0.18199998 4289652353
0.72911483 0.038785886 0.18199998 4289652353
0.72911483 0.037262425 0.18199998 4289652353
0.72911483 0.035738964 0.18199998 4289652353
0.72911483 0.034215502 0.18199998 4289652353
0.72911483 0.032692041 0.18199998 4289652353
0.72911483 0.031168576 0.18199998 4289652353
0.72891057 0.029726341 0.18299997 4287045710
0.72891057 0.028205495 0.18299997 4287045710
0.72870624 0.026771098 0.18399996 4287045710
0.72870624 0.025252864 0.18399996 4287045710
0.72870624 0.023734629 0.18399996 4287045710
0.72850192 0.022310682 0.18499994 4287045710
0.72850192 0.020795062 0.18499994 4287045710
0.72850192 0.019279439 0.18499994 4287045710
0.72850192 0.017763816 0.18499994 4287045710
0.72850192 0.016248193 0.18499994 4287045710
0.72829759 0.014839925 0.18599993 4287045710
0.72829759 0.013326921 0.18599993 4287045710
0.72829759 0.011813909 0.18599993 4287045710
0.72829759 0.010300905 0.18599993 4287045710
0.72829759 0.0087878928 0.18599993 4287045710
0.72809327 0.0073953122 0.18699998 4287045710
0.72809327 0.0058849156 0.18699998 4287045710
0.72788894 0.0045001656 0.18799996 4287045710
0.72788894 0.0029923841 0.18799996 4287045710
0.72788894 0.0014846027 0.18799996 4287045710
0.72788894 -2.3178756e-05 0.18799996 4287045710
0.72788894 -0.0015309677 0.18799996 4287045710
0.72768468 -0.0029000342 0.18899995 4287045710
0.72768468 -0.0044052005 0.18899995 4287045710
0.72768468 -0.0059103742 0.18899995 4287045710
0.72768468 -0.0074155405 0.18899995 4287045710
0.72748035 -0.0087715462 0.18999994 4287045710
0.72748035 -0.010274105 0.18999994 4287045710
0.72748035 -0.011776663 0.18999994 4287045710
0.72748035 -0.013279215 0.18999994 4287045710
0.72748035 -0.014781773 0.18999994 4287045710
0.72748035 -0.016284324 0.18999994 4287045710
0.72748035 -0.017786883 0.18999994 4287045710
0.72748035 -0.019289434 0.18999994 4287045710
0.72748035 -0.020791993 0.18999994 4287045710
0.72748035 -0.022294551 0.18999994 4287045710
0.72748035 -0.02379711 0.18999994 4287045710
0.72748035 -0.025299661 0.18999994 4287045710
0.72748035 -0.026802219 0.18999994 4287045710
0.72768468 -0.028487913 0.18899995 4287045710
0.72768468 -0.029993087 0.18899995 4287045710
0.72768468 -0.031498253 0.18899995 4287045710
0.72788894 -0.0331944 0.18799996 4287045710
0.72788894 -0.034702182 0.18799996 4287045710
0.72788894 -0.036209963 0.18799996 4287045710
0.72809327 -0.037916563 0.18699998 4287045710
0.72809327 -0.03942696 0.18699998 4287045710
0.72809327 -0.040937357 0.18699998 4287045710
0.72809327 -0.042447753 0.18699998 4287045710
0.72809327 -0.04395815 0.18699998 4287045710
0.72829759 -0.045680441 0.18599993 4287045710
0.72829759 -0.047193445 0.18599993 4287045710
0.72829759 -0.04870645 0.18599993 4287045710
0.72829759 -0.050219469 0.18599993 4287045710
0.72850192 -0.051954798 0.18499994 4287045710
0.72850192 -0.053470425 0.18499994 4287045710
0.72850192 -0.054986052 0.18499994 4287045710
0.72850192 -0.056501664 0.18499994 4287045710
0.72850192 -0.058017291 0.18499994 4287045710
0.72850192 -0.059532918 0.18499994 4287045710
0.72850192 -0.06104853 0.18499994 4287045710
0.72870624 -0.062804781 0.18399996 4287045710
0.72870624 -0.064323016 0.18399996 4287045710
0.72870624 -0.06584125 0.18399996 4287045710
0.72870624 -0.067359485 0.18399996 4287045710
0.72870624 -0.068877734 0.18399996 4287045710
0.72870624 -0.070395954 0.18399996 4287045710
0.72870624 -0.071914189 0.18399996 4287045710
0.72870624 -0.073432438 0.18399996 4287045710
0.72870624 -0.074950658 0.18399996 4287045710
0.72850192 -0.076204754 0.18499994 4287045710
0.72850192 -0.077720381 0.18499994 4287045710
0.72850192 -0.079236008 0.18499994 4287045710
0.72850192 -0.08075162 0.18499994 4289652353
0.72850192 -0.082267247 0.18499994 4289652353
0.72850192 -0.083782859 0.18499994 4289652353
0.72850192 -0.085298501 0.18499994 4289652353
0.72850192 -0.086814113 0.18499994 4289652353
0.72850192 -0.08832974 0.18499994 4289652353
0.72870624 -0.090133019 0.18399996 4289652353
0.72870624 -0.091651253 0.18399996 4289652353
0.72870624 -0.093169488 0.18399996 4289652353
0.72870624 -0.094687738 0.18399996 4289652353
0.72870624 -0.096205957 0.18399996 4289652353
0.72891057 -0.098024927 0.18299997 4289652353
0.72911483 -0.099849112 0.18199998 4289652353
0.72993213 -0.10259641 0.17799997 4289652353
0.73115802 -0.10598174 0.17199993 4289652353
0.73217958 -0.10908725 0.16699994 4289652353
0.73340547 -0.11253268 0.16099995 4289652353
0.7346313 -0.11600945 0.15499997 4284112262
0.73585719 -0.11951763 0.14899993 4284112262
0.73687875 -0.12273549 0.14399993 4284112262
0.73565942 0.0605838 0.14199996 4283372493
0.72920501 0.055249542 0.17399997 4289652353
0.7277931 0.053981084 0.18099993 4289652353
0.7277931 0.052455008 0.18099993 4289652353
0.7275914 0.050973579 0.18199998 4289652353
0.7275914 0.049450118 0.18199998 4289652353
0.7275914 0.047926657 0.18199998 4289652353
0.7275914 0.046403192 0.18199998 4289652353
0.72738969 0.044934828 0.18299997 4289652353
0.72738969 0.043413978 0.18299997 4289652353
0.72738969 0.041893132 0.18299997 4289652353
0.7275914 0.040309351 0.18199998 4289652353
0.7275914 0.038785886 0.18199998 4289652353
0.7277931 0.037194263 0.18099993 4289652353
0.7277931 0.035668187 0.18099993 4289652353
0.7277931 0.03414211 0.18099993 4289652353
0.7277931 0.032616038 0.18099993 4289652353
0.7277931 0.031089962 0.18099993 4289652353
0.7275914 0.029645115 0.18199998 4287045710
0.7275914 0.028121658 0.18199998 4287045710
0.72738969 0.026684649 0.18299997 4287045710
0.72738969 0.0251638 0.18299997 4287045710
0.72718799 0.023734629 0.18399996 4287045710
0.72718799 0.022216391 0.18399996 4287045710
0.72718799 0.020698156 0.18399996 4287045710
0.72718799 0.019179922 0.18399996 4287045710
0.72718799 0.017661687 0.18399996 4287045710
0.72718799 0.016143449 0.18399996 4287045710
0.72718799 0.014625214 0.18399996 4287045710
0.72718799 0.013106979 0.18399996 4287045710
0.72698629 0.011701323 0.18499994 4287045710
0.72698629 0.010185704 0.18499994 4287045710
0.72698629 0.0086700842 0.18499994 4287045710
0.72678459 0.007274881 0.18599993 4287045710
0.72678459 0.0057618767 0.18599993 4287045710
0.72678459 0.0042488649 0.18599993 4287045710
0.72678459 0.0027358532 0.18599993 4287045710
0.72658288 0.0013537258 0.18699998 4287045710
0.72658288 -0.00015667081 0.18699998 4287045710
0.72638118 -0.0015309677 0.18799996 4287045710
0.72638118 -0.0030387491 0.18799996 4287045710
0.72638118 -0.0045465305 0.18799996 4287045710
0.72638118 -0.006054312 0.18799996 4287045710
0.72617948 -0.0074155405 0.18899995 4287045710
0.72617948 -0.0089207143 0.18899995 4287045710
0.72617948 -0.010425881 0.18899995 4287045710
0.72617948 -0.011931054 0.18899995 4287045710
0.72617948 -0.013436221 0.18899995 4287045710
0.72617948 -0.014941394 0.18899995 4287045710
0.72617948 -0.016446553 0.18899995 4287045710
0.72617948 -0.017951727 0.18899995 4287045710
0.72617948 -0.019456893 0.18899995 4287045710
