# .PCD v0.7 - Point Cloud Data file format
VERSION 0.7
FIELDS x y z rgb
SIZE 4 4 4 4
TYPE F F F U
COUNT 1 1 1 1
WIDTH 1051
HEIGHT 1
VIEWPOINT 0 0 0 1 0 0 0
POINTS 1051
DATA ascii
0.75076711 -0.068339221 0.16099995 4279880479
0.75100017 -0.070160799 0.15999997 4279880479
0.75146633 -0.072233461 0.15799993 4279880479
0.75146633 -0.073819645 0.15799993 4279880479
0.75169939 -0.075656913 0.15699995 4279880479
0.75169939 -0.07724569 0.15699995 4279880479
0.75193244 -0.079090782 0.15599996 4279880479
0.75193244 -0.080682181 0.15599996 4279880479
0.7521655 -0.08253511 0.15499997 4279880479
0.7521655 -0.084129132 0.15499997 4279880479
0.7521655 -0.085723139 0.15499997 4279880479
0.7521655 -0.087317176 0.15499997 4279880479
0.7521655 -0.088911183 0.15499997 4279880479
0.75239855 -0.090779804 0.15399998 4279880479
0.75239855 -0.092376418 0.15399998 4279880479
0.75239855 -0.093973063 0.15399998 4279880479
0.7521655 -0.095287241 0.15499997 4279880479
0.7521655 -0.096881278 0.15499997 4284938339
0.75239855 -0.098762937 0.15399998 4284938339
0.75239855 -0.10035958 0.15399998 4284938339
0.75239855 -0.1019562 0.15399998 4284938339
0.7521655 -0.10325734 0.15499997 4284938339
0.7521655 -0.10485134 0.15499997 4284938339
0.7521655 -0.10644536 0.15499997 4284938339
0.75239855 -0.10834271 0.15399998 4284938339
0.75286466 -0.11055128 0.15199995 4284938339
0.75333077 -0.11277025 0.14999998 4284938339
0.75356388 -0.11468855 0.14899993 4284938339
0.75402999 -0.11692581 0.14699996 4284938339
0.7544961 -0.11917353 0.14499998 4284938339
0.75496221 -0.12143175 0.14299995 4284938339
0.75356728 0.047559902 0.14199996 4284938339
0.75310636 0.04603165 0.14399993 4284938339
0.75241506 0.044566337 0.14699996 4284938339
0.7519542 0.043061603 0.14899993 4284938339
0.75149328 0.041567322 0.15099996 4284938339
0.75126284 0.040023178 0.15199995 4284938339
0.75126284 0.038421322 0.15199995 4284938339
0.75103235 0.036885012 0.15299994 4284938339
0.75080192 0.035353933 0.15399998 4284938339
0.75080192 0.033757303 0.15399998 4284938339
0.75080192 0.032160673 0.15399998 4284938339
0.75103235 0.03048804 0.15299994 4284938339
0.75126284 0.028810184 0.15199995 4284938339
0.75126284 0.027208328 0.15199995 4284938339
0.75149328 0.025522638 0.15099996 4279880479
0.75172371 0.023831718 0.14999998 4279880479
0.75172371 0.022224635 0.14999998 4279880479
0.75172371 0.020617552 0.14999998 4279880479
0.75172371 0.019010469 0.14999998 4279880479
0.75172371 0.017403387 0.14999998 4279880479
0.75149328 0.015895821 0.15099996 4279880479
0.75126284 0.014393479 0.15199995 4279880479
0.75103235 0.012896366 0.15299994 4279880479
0.75080192 0.011404492 0.15399998 4279880479
0.75080192 0.0098078549 0.15399998 4279880479
0.75057149 0.008323811 0.15499997 4279880479
0.75057149 0.0067297965 0.15499997 4279880479
0.75034106 0.0052535906 0.15599996 4279880479
0.75011063 0.0037826076 0.15699995 4279880479
0.75011063 0.002193816 0.15699995 4279880479
0.74988019 0.00073067844 0.15799993 4279880479
0.74988019 -0.00085549802 0.15799993 4279880479
0.7496497 -0.0023107976 0.15899998 4279880479
0.74941927 -0.0037608743 0.15999997 4279880479
0.74918884 -0.0052057207 0.16099995 4279880479
0.74895835 -0.0066453516 0.16199994 4279880479
0.74849749 -0.0079384148 0.16399997 4279880479
0.74826705 -0.00936497 0.16499996 4279880479
0.74780613 -0.010639749 0.16699994 4279880479
0.7475757 -0.012053236 0.16799998 4279880479
0.74711478 -0.013309725 0.16999996 4279880479
0.74665391 -0.01455576 0.17199993 4279880479
0.74619305 -0.015791334 0.17399997 4279880479
0.74596262 -0.017176077 0.17499995 4279880479
0.74573213 -0.018555596 0.17599994 4279880479
0.74573213 -0.020094737 0.17599994 4279880479
0.7455017 -0.021466404 0.17699999 4279880479
0.74527127 -0.022832863 0.17799997 4279880479
0.74504077 -0.024194092 0.17899996 4279880479
0.74504077 -0.025725394 0.17899996 4279880479
0.74504077 -0.027256697 0.17899996 4279880479
0.74481034 -0.028607473 0.17999995 4279880479
0.74481034 -0.030136161 0.17999995 4279880479
0.74481034 -0.031664848 0.17999995 4279880479
0.74481034 -0.033193544 0.17999995 4279880479
0.74481034 -0.034722231 0.17999995 4279880479
0.74504077 -0.036444508 0.17899996 4279880479
0.74504077 -0.037975803 0.17899996 4279880479
0.74527127 -0.039705925 0.17799997 4279880479
0.74527127 -0.041239835 0.17799997 4279880479
0.7455017 -0.042977795 0.17699999 4279880479
0.74573213 -0.044720985 0.17599994 4279880479
0.74596262 -0.046469398 0.17499995 4279880479
0.74619305 -0.048223026 0.17399997 4279880479
0.74642348 -0.049981885 0.17299998 4279880479
0.74665391 -0.051745988 0.17199993 4279880479
0.74688435 -0.053515308 0.17099994 4279880479
0.74711478 -0.055289827 0.16999996 4279880479
0.74734527 -0.057069607 0.16899997 4279880479
0.7475757 -0.058854587 0.16799998 4279880479
0.74803662 -0.060874991 0.16599995 4279880479
0.74826705 -0.062673055 0.16499996 4279880479
0.74849749 -0.064476334 0.16399997 4279880479
0.74872792 -0.066284858 0.16299993 4279880479
0.74918884 -0.068339221 0.16099995 4279880479
0.74941927 -0.070160799 0.15999997 4279880479
0.7496497 -0.071987607 0.15899998 4279880479
0.74988019 -0.073819645 0.15799993 4279880479
0.75011063 -0.075656913 0.15699995 4279880479
0.75011063 -0.07724569 0.15699995 4279880479
0.75011063 -0.078834467 0.15699995 4279880479
0.75034106 -0.080682181 0.15599996 4279880479
0.75057149 -0.08253511 0.15499997 4279880479
0.75057149 -0.084129132 0.15499997 4279880479
0.75057149 -0.085723139 0.15499997 4279880479
0.75057149 -0.087317176 0.15499997 4279880479
0.75057149 -0.088911183 0.15499997 4279880479
0.75057149 -0.090505205 0.15499997 4279880479
0.75057149 -0.092099212 0.15499997 4279880479
0.75057149 -0.093693234 0.15499997 4279880479
0.75057149 -0.095287241 0.15499997 4279880479
0.75057149 -0.096881278 0.15499997 4284938339
0.75057149 -0.098475285 0.15499997 4284938339
0.75057149 -0.10006931 0.15499997 4284938339
0.75057149 -0.10166331 0.15499997 4284938339
0.75057149 -0.10325734 0.15499997 4284938339
0.75057149 -0.10485134 0.15499997 4284938339
0.75057149 -0.10644536 0.15499997 4284938339
0.75057149 -0.10803937 0.15499997 4284938339
0.75103235 -0.11024532 0.15299994 4284938339
0.75172371 -0.11277025 0.14999998 4284938339
0.7519542 -0.11468855 0.14899993 4284938339
0.75241506 -0.11692581 0.14699996 4284938339
0.75287592 -0.11917353 0.14499998 4284938339
0.75333685 -0.12143175 0.14299995 4284938339
0.7519393 0.047559902 0.14199996 4284938339
0.75148362 0.04603165 0.14399993 4284938339
0.75080013 0.044566337 0.14699996 4284938339
0.75034446 0.043061603 0.14899993 4284938339
0.74988878 0.041567322 0.15099996 4284938339
0.74966097 0.040023178 0.15199995 4284938339
0.74943316 0.038484253 0.15299994 4284938339
0.74920529 0.036950562 0.15399998 4284938339
0.74897748 0.03542209 0.15499997 4284938339
0.74920529 0.033757303 0.15399998 4284938339
0.74920529 0.032160673 0.15399998 4284938339
0.74920529 0.030564044 0.15399998 4284938339
0.74943316 0.028888796 0.15299994 4284938339
0.74966097 0.027208328 0.15199995 4284938339
0.74966097 0.025606476 0.15199995 4279880479
0.74988878 0.023918167 0.15099996 4279880479
0.74988878 0.022313699 0.15099996 4279880479
0.75011665 0.020617552 0.14999998 4279880479
0.75011665 0.019010469 0.14999998 4279880479
0.74988878 0.017500289 0.15099996 4279880479
0.74966097 0.015995339 0.15199995 4279880479
0.74966097 0.014393479 0.15199995 4279880479
0.74943316 0.012896366 0.15299994 4279880479
0.74920529 0.011404492 0.15399998 4279880479
0.74897748 0.0099178255 0.15499997 4279880479
0.74897748 0.008323811 0.15499997 4279880479
0.74897748 0.0067297965 0.15499997 4279880479
0.74874961 0.0052535906 0.15599996 4279880479
0.7485218 0.0037826076 0.15699995 4279880479
0.7485218 0.002193816 0.15699995 4279880479
0.748294 0.00073067844 0.15799993 4279880479
0.748294 -0.00085549802 0.15799993 4279880479
0.74806613 -0.0023107976 0.15899998 4279880479
0.74783832 -0.0037608743 0.15999997 4279880479
0.74761045 -0.0052057207 0.16099995 4279880479
0.74715483 -0.0065066367 0.16299993 4279880479
0.74692696 -0.0079384148 0.16399997 4279880479
0.74647129 -0.0092210323 0.16599995 4279880479
0.74624348 -0.010639749 0.16699994 4279880479
0.7457878 -0.011904068 0.16899997 4279880479
0.74533218 -0.013157941 0.17099994 4279880479
0.74510431 -0.01455576 0.17199993 4279880479
0.74464869 -0.015791334 0.17399997 4279880479
0.74442083 -0.017176077 0.17499995 4279880479
0.74419302 -0.018555596 0.17599994 4279880479
0.74419302 -0.020094737 0.17599994 4279880479
0.74396515 -0.021466404 0.17699999 4279880479
0.74373734 -0.022832863 0.17799997 4279880479
0.74350953 -0.024194092 0.17899996 4279880479
0.74350953 -0.025725394 0.17899996 4279880479
0.74350953 -0.027256697 0.17899996 4279880479
0.74350953 -0.028788 0.17899996 4279880479
0.74328166 -0.030136161 0.17999995 4279880479
0.74328166 -0.031664848 0.17999995 4279880479
0.74328166 -0.033193544 0.17999995 4279880479
0.74350953 -0.034913205 0.17899996 4279880479
0.74350953 -0.036444508 0.17899996 4279880479
0.74350953 -0.037975803 0.17899996 4279880479
0.74373734 -0.039705925 0.17799997 4279880479
0.74373734 -0.041239835 0.17799997 4279880479
0.74419302 -0.043181844 0.17599994 4279880479
0.74419302 -0.044720985 0.17599994 4279880479
0.74442083 -0.046469398 0.17499995 4279880479
0.74464869 -0.048223026 0.17399997 4279880479
0.7448765 -0.049981885 0.17299998 4279880479
0.74510431 -0.051745988 0.17199993 4279880479
0.74533218 -0.053515308 0.17099994 4279880479
0.74533218 -0.055067502 0.17099994 4279880479
0.7457878 -0.057069607 0.16899997 4279880479
0.74601567 -0.058854587 0.16799998 4279880479
0.74624348 -0.060644828 0.16699994 4279880479
0.74647129 -0.062440269 0.16599995 4279880479
0.74692696 -0.064476334 0.16399997 4279880479
0.74715483 -0.066284858 0.16299993 4279880479
0.74761045 -0.068339221 0.16099995 4279880479
0.74783832 -0.070160799 0.15999997 4279880479
0.74806613 -0.071987607 0.15899998 4279880479
0.748294 -0.073819645 0.15799993 4279880479
0.748294 -0.075405829 0.15799993 4279880479
0.7485218 -0.07724569 0.15699995 4279880479
0.7485218 -0.078834467 0.15699995 4279880479
0.7485218 -0.080423273 0.15699995 4279880479
0.74874961 -0.08227358 0.15599996 4279880479
0.74874961 -0.083864994 0.15599996 4279880479
0.74897748 -0.085723139 0.15499997 4279880479
0.74897748 -0.087317176 0.15499997 4279880479
0.74897748 -0.088911183 0.15499997 4279880479
0.74897748 -0.090505205 0.15499997 4279880479
0.74897748 -0.092099212 0.15499997 4279880479
0.74897748 -0.093693234 0.15499997 4279880479
0.74897748 -0.095287241 0.15499997 4279880479
0.74897748 -0.096881278 0.15499997 4284938339
0.74897748 -0.098475285 0.15499997 4284938339
0.74897748 -0.10006931 0.15499997 4284938339
0.74897748 -0.10166331 0.15499997 4284938339
0.74874961 -0.10296183 0.15599996 4284938339
0.74874961 -0.10455323 0.15599996 4284938339
0.74874961 -0.10614464 0.15599996 4284938339
0.74897748 -0.10803937 0.15499997 4284938339
0.74920529 -0.10993936 0.15399998 4284938339
0.74966097 -0.11215312 0.15199995 4284938339
0.75034446 -0.11468855 0.14899993 4284938339
0.75080013 -0.11692581 0.14699996 4284938339
0.75125575 -0.11917353 0.14499998 4284938339
0.7519393 -0.12175076 0.14199996 4284938339
0.75031132 0.047559902 0.14199996 4284938339
0.74963564 0.046081521 0.14499998 4284938339
0.7491852 0.044566337 0.14699996 4284938339
0.74873477 0.043061603 0.14899993 4284938339
0.74805909 0.04162503 0.15199995 4284938339
0.74805909 0.040023178 0.15199995 4284938339
0.74760866 0.038547192 0.15399998 4284938339
0.74738348 0.037016109 0.15499997 4284938339
0.74738348 0.03542209 0.15499997 4284938339
0.74738348 0.033828076 0.15499997 4284938339
0.74738348 0.032234058 0.15499997 4284938339
0.74760866 0.030564044 0.15399998 4284938339
0.74760866 0.02896741 0.15399998 4284938339
0.74783391 0.027289551 0.15299994 4284938339
0.74805909 0.025606476 0.15199995 4279880479
0.74805909 0.02400462 0.15199995 4279880479
0.74805909 0.022402763 0.15199995 4279880479
0.74828434 0.020709228 0.15099996 4279880479
0.74828434 0.01910476 0.15099996 4279880479
0.74805909 0.017597195 0.15199995 4279880479
0.74805909 0.015995339 0.15199995 4279880479
0.74783391 0.014495611 0.15299994 4279880479
0.74760866 0.013001122 0.15399998 4279880479
0.74760866 0.011404492 0.15399998 4279880479
0.74738348 0.0099178255 0.15499997 4279880479
0.74738348 0.008323811 0.15499997 4279880479
0.74715823 0.0068449974 0.15599996 4279880479
0.74693298 0.0053713992 0.15699995 4279880479
0.74693298 0.0037826076 0.15699995 4279880479
0.74693298 0.002193816 0.15699995 4279880479
0.7467078 0.00073067844 0.15799993 4279880479
0.74648261 -0.00072723627 0.15899998 4279880479
0.74625736 -0.0021799207 0.15999997 4279880479
0.74603212 -0.0036273897 0.16099995 4279880479
0.74580693 -0.0050696209 0.16199994 4279880479
0.74558175 -0.0065066367 0.16299993 4279880479
0.7453565 -0.0079384148 0.16399997 4279880479
0.74490607 -0.0092210323 0.16599995 4279880479
0.74445558 -0.010493189 0.16799998 4279880479
0.7440052 -0.0117549 0.16999996 4279880479
0.74377996 -0.013157941 0.17099994 4279880479
0.74355471 -0.01455576 0.17199993 4279880479
0.74310428 -0.015791334 0.17399997 4279880479
0.74287909 -0.017176077 0.17499995 4279880479
0.74265385 -0.018555596 0.17599994 4279880479
0.74265385 -0.020094737 0.17599994 4279880479
0.74242866 -0.021466404 0.17699999 4279880479
0.74220341 -0.022832863 0.17799997 4279880479
0.74220341 -0.024366781 0.17799997 4279880479
0.74197817 -0.025725394 0.17899996 4279880479
0.74197817 -0.027256697 0.17899996 4279880479
0.74197817 -0.028788 0.17899996 4279880479
0.74197817 -0.030319303 0.17899996 4279880479
0.74175298 -0.031664848 0.17999995 4279880479
0.74197817 -0.033381902 0.17899996 4279880479
0.74197817 -0.034913205 0.17899996 4279880479
0.74197817 -0.036444508 0.17899996 4279880479
0.74220341 -0.038172007 0.17799997 4279880479
0.74220341 -0.039705925 0.17799997 4279880479
0.74242866 -0.041441262 0.17699999 4279880479
0.74265385 -0.043181844 0.17599994 4279880479
0.74265385 -0.044720985 0.17599994 4279880479
0.74287909 -0.046469398 0.17499995 4279880479
0.74310428 -0.048223026 0.17399997 4279880479
0.74332952 -0.049981885 0.17299998 4279880479
0.74355471 -0.051745988 0.17199993 4279880479
0.74355471 -0.05329559 0.17199993 4279880479
0.74377996 -0.055067502 0.17099994 4279880479
0.7440052 -0.056844659 0.16999996 4279880479
0.74445558 -0.058854587 0.16799998 4279880479
0.74468082 -0.060644828 0.16699994 4279880479
0.74490607 -0.062440269 0.16599995 4279880479
0.7453565 -0.064476334 0.16399997 4279880479
0.74558175 -0.066284858 0.16299993 4279880479
0.74580693 -0.068098597 0.16199994 4279880479
0.74603212 -0.069917567 0.16099995 4279880479
0.74625736 -0.071741752 0.15999997 4279880479
0.74648261 -0.073571168 0.15899998 4279880479
0.7467078 -0.075405829 0.15799993 4279880479
0.7467078 -0.076991998 0.15799993 4279880479
0.74693298 -0.078834467 0.15699995 4279880479
0.74693298 -0.080423273 0.15699995 4279880479
0.74693298 -0.08201205 0.15699995 4279880479
0.74715823 -0.083864994 0.15599996 4279880479
0.74715823 -0.085456394 0.15599996 4279880479
0.74715823 -0.087047808 0.15599996 4279880479
0.74738348 -0.088911183 0.15499997 4279880479
0.74738348 -0.090505205 0.15499997 4279880479
0.74738348 -0.092099212 0.15499997 4279880479
0.74738348 -0.093693234 0.15499997 4279880479
0.74738348 -0.095287241 0.15499997 4279880479
0.74738348 -0.096881278 0.15499997 4284938339
0.74738348 -0.098475285 0.15499997 4284938339
0.74738348 -0.10006931 0.15499997 4284938339
0.74738348 -0.10166331 0.15499997 4284938339
0.74715823 -0.10296183 0.15599996 4284938339
0.74693298 -0.10425512 0.15699995 4284938339
0.74715823 -0.10614464 0.15599996 4284938339
0.74738348 -0.10803937 0.15499997 4284938339
0.74760866 -0.10993936 0.15399998 4284938339
0.74805909 -0.11215312 0.15199995 4284938339
0.74873477 -0.11468855 0.14899993 4284938339
0.7491852 -0.11692581 0.14699996 4284938339
0.74963564 -0.11917353 0.14499998 4284938339
0.75031132 -0.12175076 0.14199996 4284938339
0.74846071 0.047607157 0.14299995 4284938339
0.7477929 0.046131387 0.14599997 4284938339
0.74757028 0.044566337 0.14699996 4284938339
0.74690247 0.0431167 0.14999998 4284938339
0.74645722 0.04162503 0.15199995 4284938339
0.74623466 0.040083498 0.15299994 4284938339
0.74601203 0.038547192 0.15399998 4284938339
0.74578941 0.037016109 0.15499997 4284938339
0.74578941 0.03542209 0.15499997 4284938339
0.74578941 0.033828076 0.15499997 4284938339
0.74578941 0.032234058 0.15499997 4284938339
0.74578941 0.03064004 0.15499997 4284938339
0.74601203 0.02896741 0.15399998 4284938339
0.74601203 0.027370781 0.15399998 4284938339
0.74601203 0.025774159 0.15399998 4279880479
0.74623466 0.024091072 0.15299994 4279880479
0.74645722 0.022402763 0.15199995 4279880479
0.74645722 0.020800907 0.15199995 4279880479
0.74645722 0.019199051 0.15199995 4279880479
0.74645722 0.017597195 0.15199995 4279880479
0.74623466 0.016094856 0.15299994 4279880479
0.74601203 0.014597747 0.15399998 4279880479
0.74601203 0.013001122 0.15399998 4279880479
0.74578941 0.011511847 0.15499997 4279880479
0.74578941 0.0099178255 0.15499997 4279880479
0.74578941 0.008323811 0.15499997 4279880479
0.74556684 0.0068449974 0.15599996 4279880479
0.74534422 0.0053713992 0.15699995 4279880479
0.74534422 0.0037826076 0.15699995 4279880479
0.7451216 0.0023168549 0.15799993 4279880479
0.7451216 0.00073067844 0.15799993 4279880479
0.74467641 -0.00059897453 0.15999997 4279880479
0.74467641 -0.0021799207 0.15999997 4279880479
0.74445379 -0.0036273897 0.16099995 4279880479
0.74423122 -0.0050696209 0.16199994 4279880479
0.7440086 -0.0065066367 0.16299993 4279880479
0.74356341 -0.0077970847 0.16499996 4279880479
0.74334079 -0.0092210323 0.16599995 4279880479
0.74289554 -0.010493189 0.16799998 4279880479
0.74245036 -0.0117549 0.16999996 4279880479
0.74222773 -0.013157941 0.17099994 4279880479
0.74200517 -0.01455576 0.17199993 4279880479
0.74155992 -0.015791334 0.17399997 4279880479
0.7413373 -0.017176077 0.17499995 4279880479
0.74111474 -0.018555596 0.17599994 4279880479
0.74111474 -0.020094737 0.17599994 4279880479
0.74089211 -0.021466404 0.17699999 4279880479
0.74066949 -0.022832863 0.17799997 4279880479
0.74066949 -0.024366781 0.17799997 4279880479
0.74066949 -0.025900692 0.17799997 4279880479
0.74044693 -0.027256697 0.17899996 4279880479
0.74044693 -0.028788 0.17899996 4279880479
0.74044693 -0.030319303 0.17899996 4279880479
0.74044693 -0.031850599 0.17899996 4279880479
0.74044693 -0.033381902 0.17899996 4279880479
0.74044693 -0.034913205 0.17899996 4279880479
0.74066949 -0.036638096 0.17799997 4279880479
0.74066949 -0.038172007 0.17799997 4279880479
0.74066949 -0.039705925 0.17799997 4279880479
0.74089211 -0.041441262 0.17699999 4279880479
0.74111474 -0.043181844 0.17599994 4279880479
0.74111474 -0.044720985 0.17599994 4279880479
0.7413373 -0.046469398 0.17499995 4279880479
0.74155992 -0.048223026 0.17399997 4279880479
0.74155992 -0.049767397 0.17399997 4279880479
0.74178255 -0.051528864 0.17299998 4279880479
0.74200517 -0.05329559 0.17199993 4279880479
0.74222773 -0.055067502 0.17099994 4279880479
0.74245036 -0.056844659 0.16999996 4279880479
0.74289554 -0.058854587 0.16799998 4279880479
0.74289554 -0.060414635 0.16799998 4279880479
0.74334079 -0.062440269 0.16599995 4279880479
0.74356341 -0.06424094 0.16499996 4279880479
0.74378598 -0.066046841 0.16399997 4279880479
0.74423122 -0.068098597 0.16199994 4279880479
0.74445379 -0.069917567 0.16099995 4279880479
0.74467641 -0.071741752 0.15999997 4279880479
0.74489903 -0.073571168 0.15899998 4279880479
0.7451216 -0.075405829 0.15799993 4279880479
0.7451216 -0.076991998 0.15799993 4279880479
0.7451216 -0.078578167 0.15799993 4279880479
0.74534422 -0.080423273 0.15699995 4279880479
0.74534422 -0.08201205 0.15699995 4279880479
0.74534422 -0.083600856 0.15699995 4279880479
0.74534422 -0.085189633 0.15699995 4279880479
0.74556684 -0.087047808 0.15599996 4279880479
0.74578941 -0.088911183 0.15499997 4279880479
0.74578941 -0.090505205 0.15499997 4279880479
0.74578941 -0.092099212 0.15499997 4279880479
0.74578941 -0.093693234 0.15499997 4279880479
0.74578941 -0.095287241 0.15499997 4279880479
0.74578941 -0.096881278 0.15499997 4284938339
0.74578941 -0.098475285 0.15499997 4284938339
0.74578941 -0.10006931 0.15499997 4284938339
0.74578941 -0.10166331 0.15499997 4284938339
0.74556684 -0.10296183 0.15599996 4284938339
0.74534422 -0.10425512 0.15699995 4284938339
0.74556684 -0.10614464 0.15599996 4284938339
0.74578941 -0.10803937 0.15499997 4284938339
0.74601203 -0.10993936 0.15399998 4284938339
0.74645722 -0.11215312 0.15199995 4284938339
0.74712509 -0.11468855 0.14899993 4284938339
0.74757028 -0.11692581 0.14699996 4284938339
0.74801552 -0.11917353 0.14499998 4284938339
0.74868333 -0.12175076 0.14199996 4284938339
0.74683535 0.047607157 0.14299995 4284938339
0.74617535 0.046131387 0.14599997 4284938339
0.74595535 0.044566337 0.14699996 4284938339
0.74529541 0.0431167 0.14999998 4284938339
0.7448554 0.04162503 0.15199995 4284938339
0.7446354 0.040083498 0.15299994 4284938339
0.7444154 0.038547192 0.15399998 4284938339
0.7441954 0.037016109 0.15499997 4284938339
0.7439754 0.035490252 0.15599996 4284938339
0.7439754 0.033898845 0.15599996 4284938339
0.7439754 0.032307442 0.15599996 4284938339
0.7441954 0.03064004 0.15499997 4284938339
0.7441954 0.029046025 0.15499997 4284938339
0.7441954 0.027452007 0.15499997 4284938339
0.7444154 0.025774159 0.15399998 4279880479
0.7444154 0.024177529 0.15399998 4279880479
0.7444154 0.022580896 0.15399998 4279880479
0.7444154 0.020984266 0.15399998 4279880479
0.7446354 0.019293342 0.15299994 4279880479
0.7444154 0.017791007 0.15399998 4279880479
0.7444154 0.016194377 0.15399998 4279880479
0.7444154 0.014597747 0.15399998 4279880479
0.7441954 0.013105862 0.15499997 4279880479
0.7441954 0.011511847 0.15499997 4279880479
0.7439754 0.010027796 0.15599996 4279880479
0.7439754 0.0084363967 0.15599996 4279880479
0.74375546 0.0069601908 0.15699995 4279880479
0.74375546 0.0053713992 0.15699995 4279880479
0.74353546 0.0039030313 0.15799993 4279880479
0.74353546 0.0023168549 0.15799993 4279880479
0.74331546 0.00085633248 0.15899998 4279880479
0.74309546 -0.00059897453 0.15999997 4279880479
0.74287546 -0.0020490512 0.16099995 4279880479
0.74287546 -0.0036273897 0.16099995 4279880479
0.74243546 -0.0049335212 0.16299993 4279880479
0.74221551 -0.0063679144 0.16399997 4279880479
0.74199551 -0.0077970847 0.16499996 4279880479
0.74155551 -0.0090770945 0.16699994 4279880479
0.74133551 -0.010493189 0.16799998 4279880479
0.74089551 -0.0117549 0.16999996 4279880479
0.74067557 -0.013157941 0.17099994 4279880479
0.74045557 -0.01455576 0.17199993 4279880479
0.74001557 -0.015791334 0.17399997 4279880479
0.73979557 -0.017176077 0.17499995 4279880479
0.73957556 -0.018555596 0.17599994 4279880479
0.73957556 -0.020094737 0.17599994 4279880479
0.73935556 -0.021466404 0.17699999 4279880479
0.73913562 -0.022832863 0.17799997 4279880479
0.73913562 -0.024366781 0.17799997 4279880479
0.73913562 -0.025900692 0.17799997 4279880479
0.73913562 -0.02743461 0.17799997 4279880479
0.73891562 -0.028788 0.17899996 4279880479
0.73891562 -0.030319303 0.17899996 4279880479
0.73891562 -0.031850599 0.17899996 4279880479
0.73891562 -0.033381902 0.17899996 4279880479
0.73891562 -0.034913205 0.17899996 4279880479
0.73913562 -0.036638096 0.17799997 4279880479
0.73913562 -0.038172007 0.17799997 4279880479
0.73913562 -0.039705925 0.17799997 4279880479
0.73935556 -0.041441262 0.17699999 4279880479
0.73935556 -0.042977795 0.17699999 4279880479
0.73957556 -0.044720985 0.17599994 4279880479
0.73979557 -0.046469398 0.17499995 4279880479
0.73979557 -0.048011146 0.17499995 4279880479
0.74001557 -0.049767397 0.17399997 4279880479
0.74023557 -0.051528864 0.17299998 4279880479
0.74045557 -0.05329559 0.17199993 4279880479
0.74067557 -0.055067502 0.17099994 4279880479
0.74089551 -0.056844659 0.16999996 4279880479
0.74111551 -0.058627032 0.16899997 4279880479
0.74133551 -0.060414635 0.16799998 4279880479
0.74155551 -0.062207483 0.16699994 4279880479
0.74177551 -0.064005546 0.16599995 4279880479
0.74221551 -0.066046841 0.16399997 4279880479
0.74243546 -0.067857973 0.16299993 4279880479
0.74287546 -0.069917567 0.16099995 4279880479
0.74309546 -0.071741752 0.15999997 4279880479
0.74309546 -0.073322706 0.15999997 4279880479
0.74331546 -0.075154744 0.15899998 4279880479
0.74353546 -0.076991998 0.15799993 4279880479
0.74353546 -0.078578167 0.15799993 4279880479
0.74353546 -0.080164351 0.15799993 4279880479
0.74375546 -0.08201205 0.15699995 4279880479
0.74375546 -0.083600856 0.15699995 4279880479
0.74375546 -0.085189633 0.15699995 4279880479
0.74375546 -0.08677844 0.15699995 4279880479
0.7441954 -0.088911183 0.15499997 4279880479
0.7441954 -0.090505205 0.15499997 4279880479
0.7441954 -0.092099212 0.15499997 4279880479
0.7441954 -0.093693234 0.15499997 4279880479
0.7441954 -0.095287241 0.15499997 4279880479
0.7441954 -0.096881278 0.15499997 4284938339
0.7441954 -0.098475285 0.15499997 4284938339
0.7441954 -0.10006931 0.15499997 4284938339
0.7441954 -0.10166331 0.15499997 4284938339
0.7439754 -0.10296183 0.15599996 4284938339
0.74375546 -0.10425512 0.15699995 4284938339
0.7439754 -0.10614464 0.15599996 4284938339
0.7441954 -0.10803937 0.15499997 4284938339
0.7444154 -0.10993936 0.15399998 4284938339
0.7448554 -0.11215312 0.15199995 4284938339
0.74551535 -0.11468855 0.14899993 4284938339
0.74595535 -0.11692581 0.14699996 4284938339
0.74639535 -0.11917353 0.14499998 4284938339
0.74705529 -0.12175076 0.14199996 4284938339
0.74520993 0.047607157 0.14299995 4284938339
0.7445578 0.046131387 0.14599997 4284938339
0.74412304 0.044618815 0.14799994 4284938339
0.74368829 0.0431167 0.14999998 4284938339
0.74325353 0.04162503 0.15199995 4284938339
0.74281877 0.040143821 0.15399998 4284938339
0.74260139 0.038610123 0.15499997 4284938339
0.74238402 0.037081655 0.15599996 4284938339
0.74216664 0.03555841 0.15699995 4284938339
0.74216664 0.033969618 0.15699995 4284938339
0.74216664 0.03238083 0.15699995 4284938339
0.74238402 0.030716039 0.15599996 4284938339
0.74238402 0.029124636 0.15599996 4284938339
0.74260139 0.027452007 0.15499997 4284938339
0.74260139 0.025857996 0.15499997 4279880479
0.74260139 0.024263978 0.15499997 4279880479
0.74281877 0.022580896 0.15399998 4279880479
0.74281877 0.020984266 0.15399998 4279880479
0.74281877 0.019387636 0.15399998 4279880479
0.74260139 0.017887913 0.15499997 4279880479
0.74260139 0.016293894 0.15499997 4279880479
0.74260139 0.014699876 0.15499997 4279880479
0.74238402 0.013210602 0.15599996 4279880479
0.74238402 0.011619203 0.15599996 4279880479
0.74216664 0.010137767 0.15699995 4279880479
0.74216664 0.008548975 0.15699995 4279880479
0.74216664 0.0069601908 0.15699995 4279880479
0.74216664 0.0053713992 0.15699995 4279880479
0.74194926 0.0039030313 0.15799993 4279880479
0.74194926 0.0023168549 0.15799993 4279880479
0.7415145 0.00098197907 0.15999997 4279880479
0.7415145 -0.00059897453 0.15999997 4279880479
0.74129713 -0.0020490512 0.16099995 4279880479
0.74129713 -0.0036273897 0.16099995 4279880479
0.74086237 -0.0049335212 0.16299993 4279880479
0.74064499 -0.0063679144 0.16399997 4279880479
0.74021024 -0.0076557621 0.16599995 4279880479
0.73999286 -0.0090770945 0.16699994 4279880479
0.73977548 -0.010493189 0.16799998 4279880479
0.73934072 -0.0117549 0.16999996 4279880479
0.73912334 -0.013157941 0.17099994 4279880479
0.73890597 -0.01455576 0.17199993 4279880479
0.73847121 -0.015791334 0.17399997 4279880479
0.73825383 -0.017176077 0.17499995 4279880479
0.73803645 -0.018555596 0.17599994 4279880479
0.73803645 -0.020094737 0.17599994 4279880479
0.73781908 -0.021466404 0.17699999 4279880479
0.7376017 -0.022832863 0.17799997 4279880479
0.7376017 -0.024366781 0.17799997 4279880479
0.7376017 -0.025900692 0.17799997 4279880479
0.7376017 -0.02743461 0.17799997 4279880479
0.7376017 -0.02896852 0.17799997 4279880479
0.73738432 -0.030319303 0.17899996 4279880479
0.73738432 -0.031850599 0.17899996 4279880479
0.73738432 -0.033381902 0.17899996 4279880479
0.73738432 -0.034913205 0.17899996 4279880479
0.7376017 -0.036638096 0.17799997 4279880479
0.7376017 -0.038172007 0.17799997 4279880479
0.7376017 -0.039705925 0.17799997 4279880479
0.73781908 -0.041441262 0.17699999 4279880479
0.73781908 -0.042977795 0.17699999 4279880479
0.73803645 -0.044720985 0.17599994 4279880479
0.73803645 -0.046260126 0.17599994 4279880479
0.73825383 -0.048011146 0.17499995 4279880479
0.73847121 -0.049767397 0.17399997 4279880479
0.73847121 -0.051311769 0.17399997 4279880479
0.73890597 -0.05329559 0.17199993 4279880479
0.73890597 -0.054845162 0.17199993 4279880479
0.73912334 -0.056619711 0.17099994 4279880479
0.73934072 -0.058399476 0.16999996 4279880479
0.73977548 -0.060414635 0.16799998 4279880479
0.73999286 -0.062207483 0.16699994 4279880479
0.74021024 -0.064005546 0.16599995 4279880479
0.74042761 -0.065808825 0.16499996 4279880479
0.74086237 -0.067857973 0.16299993 4279880479
0.74107975 -0.069674321 0.16199994 4279880479
0.74129713 -0.071495898 0.16099995 4279880479
0.7415145 -0.073322706 0.15999997 4279880479
0.7415145 -0.07490366 0.15999997 4279880479
0.74173188 -0.07673829 0.15899998 4279880479
0.74194926 -0.078578167 0.15799993 4279880479
0.74194926 -0.080164351 0.15799993 4279880479
0.74194926 -0.08175052 0.15799993 4279880479
0.74216664 -0.083600856 0.15699995 4279880479
0.74216664 -0.085189633 0.15699995 4279880479
0.74216664 -0.08677844 0.15699995 4279880479
0.74238402 -0.088639192 0.15599996 4279880479
0.74260139 -0.090505205 0.15499997 4279880479
0.74260139 -0.092099212 0.15499997 4279880479
0.74260139 -0.093693234 0.15499997 4279880479
0.74260139 -0.095287241 0.15499997 4279880479
0.74260139 -0.096881278 0.15499997 4284938339
0.74260139 -0.098475285 0.15499997 4284938339
0.74260139 -0.10006931 0.15499997 4284938339
0.74260139 -0.10166331 0.15499997 4284938339
0.74260139 -0.10325734 0.15499997 4284938339
0.74238402 -0.10455323 0.15599996 4284938339
0.74238402 -0.10614464 0.15599996 4284938339
0.74260139 -0.10803937 0.15499997 4284938339
0.74281877 -0.10993936 0.15399998 4284938339
0.74325353 -0.11215312 0.15199995 4284938339
0.74390566 -0.11468855 0.14899993 4284938339
0.74434042 -0.11692581 0.14699996 4284938339
0.74477518 -0.11917353 0.14499998 4284938339
0.74542737 -0.12175076 0.14199996 4284938339
0.74336982 0.047654413 0.14399993 4284938339
0.74294031 0.046131387 0.14599997 4284938339
0.74229598 0.044671297 0.14899993 4284938339
0.74186647 0.043171793 0.15099996 4284938339
0.74122214 0.041740447 0.15399998 4284938339
0.74122214 0.040143821 0.15399998 4284938339
0.74079263 0.038673058 0.15599996 4284938339
0.74057788 0.037147202 0.15699995 4284938339
0.74036312 0.035626572 0.15799993 4284938339
0.74036312 0.034040391 0.15799993 4284938339
0.74036312 0.032454215 0.15799993 4284938339
0.74057788 0.030792039 0.15699995 4284938339
0.74057788 0.029203247 0.15699995 4284938339
0.74057788 0.027614459 0.15699995 4279880479
0.74079263 0.025941834 0.15599996 4279880479
0.74079263 0.024350431 0.15599996 4279880479
0.74100739 0.022669964 0.15499997 4279880479
0.74100739 0.021075945 0.15499997 4279880479
0.74100739 0.019481927 0.15499997 4279880479
0.74100739 0.017887913 0.15499997 4279880479
0.74100739 0.016293894 0.15499997 4279880479
0.74079263 0.014802009 0.15599996 4279880479
0.74057788 0.01331535 0.15699995 4279880479
0.74057788 0.011726558 0.15699995 4279880479
0.74057788 0.010137767 0.15699995 4279880479
0.74057788 0.008548975 0.15699995 4279880479
0.74036312 0.0070753843 0.15799993 4279880479
0.74036312 0.0054892078 0.15799993 4279880479
0.74036312 0.0039030313 0.15799993 4279880479
0.74014831 0.0024398938 0.15899998 4279880479
0.73993355 0.00098197907 0.15999997 4279880479
0.73993355 -0.00059897453 0.15999997 4279880479
0.73971879 -0.0020490512 0.16099995 4279880479
0.73950404 -0.0034938976 0.16199994 4279880479
0.73928928 -0.0049335212 0.16299993 4279880479
0.73907447 -0.0063679144 0.16399997 4279880479
0.73864496 -0.0076557621 0.16599995 4279880479
0.7384302 -0.0090770945 0.16699994 4279880479
0.73821545 -0.010493189 0.16799998 4279880479
0.73800063 -0.011904068 0.16899997 4279880479
0.73757112 -0.013157941 0.17099994 4279880479
0.73735636 -0.01455576 0.17199993 4279880479
0.73692679 -0.015791334 0.17399997 4279880479
0.7367121 -0.017176077 0.17499995 4279880479
0.7367121 -0.018717825 0.17499995 4279880479
0.73649728 -0.020094737 0.17599994 4279880479
0.73628253 -0.021466404 0.17699999 4279880479
0.73628253 -0.023002937 0.17699999 4279880479
0.73606777 -0.024366781 0.17799997 4279880479
0.73606777 -0.025900692 0.17799997 4279880479
0.73606777 -0.02743461 0.17799997 4279880479
0.73606777 -0.02896852 0.17799997 4279880479
0.73606777 -0.030502439 0.17799997 4279880479
0.73585302 -0.031850599 0.17899996 4279880479
0.73585302 -0.033381902 0.17899996 4279880479
0.73585302 -0.034913205 0.17899996 4279880479
0.73606777 -0.036638096 0.17799997 4279880479
0.73606777 -0.038172007 0.17799997 4279880479
0.73606777 -0.039705925 0.17799997 4279880479
0.73606777 -0.041239835 0.17799997 4279880479
0.73628253 -0.042977795 0.17699999 4279880479
0.73649728 -0.044720985 0.17599994 4279880479
0.73649728 -0.046260126 0.17599994 4279880479
0.7367121 -0.048011146 0.17499995 4279880479
0.7367121 -0.04955291 0.17499995 4279880479
0.73692679 -0.051311769 0.17399997 4279880479
0.73714161 -0.053075857 0.17299998 4279880479
0.73735636 -0.054845162 0.17199993 4279880479
0.73757112 -0.056619711 0.17099994 4279880479
0.73778588 -0.058399476 0.16999996 4279880479
0.73821545 -0.060414635 0.16799998 4279880479
0.7384302 -0.062207483 0.16699994 4279880479
0.73864496 -0.064005546 0.16599995 4279880479
0.73885971 -0.065808825 0.16499996 4279880479
0.73907447 -0.067617334 0.16399997 4279880479
0.73928928 -0.069431089 0.16299993 4279880479
0.73971879 -0.071495898 0.16099995 4279880479
0.73993355 -0.073322706 0.15999997 4279880479
0.73993355 -0.07490366 0.15999997 4279880479
0.74014831 -0.07673829 0.15899998 4279880479
0.74036312 -0.078578167 0.15799993 4279880479
0.74036312 -0.080164351 0.15799993 4279880479
0.74036312 -0.08175052 0.15799993 4279880479
0.74036312 -0.083336703 0.15799993 4279880479
0.74057788 -0.085189633 0.15699995 4279880479
0.74057788 -0.08677844 0.15699995 4279880479
0.74079263 -0.088639192 0.15599996 4279880479
0.74100739 -0.090505205 0.15499997 4279880479
0.74100739 -0.092099212 0.15499997 4279880479
0.74100739 -0.093693234 0.15499997 4279880479
0.74100739 -0.095287241 0.15499997 4279880479
0.74100739 -0.096881278 0.15499997 4284938339
0.74100739 -0.098475285 0.15499997 4284938339
0.74100739 -0.10006931 0.15499997 4284938339
0.74100739 -0.10166331 0.15499997 4284938339
0.74100739 -0.10325734 0.15499997 4284938339
0.74079263 -0.10455323 0.15599996 4284938339
0.74100739 -0.10644536 0.15499997 4284938339
0.74100739 -0.10803937 0.15499997 4284938339
0.74143696 -0.11024532 0.15299994 4284938339
0.74186647 -0.11246169 0.15099996 4284938339
0.74229598 -0.11468855 0.14899993 4284938339
0.74272549 -0.11692581 0.14699996 4284938339
0.74336982 -0.11948996 0.14399993 4284938339
0.74379933 -0.12175076 0.14199996 4284938339
0.74174702 0.047654413 0.14399993 4284938339
0.74132276 0.046131387 0.14599997 4284938339
0.7406863 0.044671297 0.14899993 4284938339
0.74026197 0.043171793 0.15099996 4284938339
0.73962551 0.041740447 0.15399998 4284938339
0.73941338 0.040204141 0.15499997 4284938339
0.73898906 0.038735993 0.15699995 4284938339
0.73877692 0.037212748 0.15799993 4284938339
0.73856473 0.035694733 0.15899998 4284938339
0.73877692 0.034040391 0.15799993 4284938339
0.73877692 0.032454215 0.15799993 4284938339
0.73877692 0.030868039 0.15799993 4284938339
0.73877692 0.029281862 0.15799993 4284938339
0.73898906 0.027614459 0.15699995 4279880479
0.73898906 0.026025672 0.15699995 4279880479
0.73898906 0.02443688 0.15699995 4279880479
0.73920119 0.022759028 0.15599996 4279880479
0.73920119 0.021167621 0.15599996 4279880479
0.73920119 0.019576218 0.15599996 4279880479
0.73920119 0.017984815 0.15599996 4279880479
0.73898906 0.016492929 0.15699995 4279880479
0.73898906 0.014904138 0.15699995 4279880479
0.73898906 0.01331535 0.15699995 4279880479
0.73898906 0.011726558 0.15699995 4279880479
0.73877692 0.010247737 0.15799993 4279880479
0.73877692 0.0086615607 0.15799993 4279880479
0.73877692 0.0070753843 0.15799993 4279880479
0.73877692 0.0054892078 0.15799993 4279880479
0.73856473 0.0040234625 0.15899998 4279880479
0.7383526 0.0025629327 0.15999997 4279880479
0.7383526 0.00098197907 0.15999997 4279880479
0.7383526 -0.00059897453 0.15999997 4279880479
0.73814046 -0.0020490512 0.16099995 4279880479
0.73792827 -0.0034938976 0.16199994 4279880479
0.73771614 -0.0049335212 0.16299993 4279880479
0.73750401 -0.0063679144 0.16399997 4279880479
0.73729181 -0.0077970847 0.16499996 4279880479
0.73686755 -0.0090770945 0.16699994 4279880479
0.73665535 -0.010493189 0.16799998 4279880479
0.73623109 -0.0117549 0.16999996 4279880479
0.73623109 -0.013309725 0.16999996 4279880479
0.73580676 -0.01455576 0.17199993 4279880479
0.73559463 -0.015948333 0.17299998 4279880479
0.73538244 -0.017335698 0.17399997 4279880479
0.7351703 -0.018717825 0.17499995 4279880479
0.73495817 -0.020094737 0.17599994 4279880479
0.73495817 -0.021633878 0.17599994 4279880479
0.73474598 -0.023002937 0.17699999 4279880479
0.73453385 -0.024366781 0.17799997 4279880479
0.73453385 -0.025900692 0.17799997 4279880479
0.73453385 -0.02743461 0.17799997 4279880479
0.73453385 -0.02896852 0.17799997 4279880479
0.73453385 -0.030502439 0.17799997 4279880479
0.73453385 -0.032036349 0.17799997 4279880479
0.73432171 -0.033381902 0.17899996 4279880479
0.73432171 -0.034913205 0.17899996 4279880479
0.73453385 -0.036638096 0.17799997 4279880479
0.73453385 -0.038172007 0.17799997 4279880479
0.73453385 -0.039705925 0.17799997 4279880479
0.73453385 -0.041239835 0.17799997 4279880479
0.73474598 -0.042977795 0.17699999 4279880479
0.73495817 -0.044720985 0.17599994 4279880479
0.73495817 -0.046260126 0.17599994 4279880479
0.73495817 -0.047799267 0.17599994 4279880479
0.7351703 -0.04955291 0.17499995 4279880479
0.73538244 -0.051311769 0.17399997 4279880479
0.73559463 -0.053075857 0.17299998 4279880479
0.73580676 -0.054845162 0.17199993 4279880479
0.7360189 -0.056619711 0.17099994 4279880479
0.73623109 -0.058399476 0.16999996 4279880479
0.73644322 -0.060184471 0.16899997 4279880479
0.73665535 -0.061974682 0.16799998 4279880479
0.73686755 -0.063770138 0.16699994 4279880479
0.73729181 -0.065808825 0.16499996 4279880479
0.73750401 -0.067617334 0.16399997 4279880479
0.73771614 -0.069431089 0.16299993 4279880479
0.73792827 -0.071250044 0.16199994 4279880479
0.73814046 -0.073074244 0.16099995 4279880479
0.7383526 -0.07490366 0.15999997 4279880479
0.7383526 -0.076484598 0.15999997 4279880479
0.73856473 -0.078321852 0.15899998 4279880479
0.73877692 -0.080164351 0.15799993 4279880479
0.73877692 -0.08175052 0.15799993 4279880479
0.73877692 -0.083336703 0.15799993 4279880479
0.73898906 -0.085189633 0.15699995 4279880479
0.73898906 -0.08677844 0.15699995 4279880479
0.73920119 -0.088639192 0.15599996 4279880479
0.73941338 -0.090505205 0.15499997 4279880479
0.73941338 -0.092099212 0.15499997 4279880479
0.73941338 -0.093693234 0.15499997 4279880479
0.73962551 -0.095569678 0.15399998 4279880479
0.73962551 -0.097166322 0.15399998 4284938339
0.73962551 -0.098762937 0.15399998 4284938339
0.73962551 -0.10035958 0.15399998 4284938339
0.73962551 -0.1019562 0.15399998 4284938339
0.73941338 -0.10325734 0.15499997 4284938339
0.73941338 -0.10485134 0.15499997 4284938339
0.73941338 -0.10644536 0.15499997 4284938339
0.73941338 -0.10803937 0.15499997 4284938339
0.73983765 -0.11024532 0.15299994 4284938339
0.7404741 -0.11277025 0.14999998 4284938339
0.7406863 -0.11468855 0.14899993 4284938339
0.74132276 -0.1172396 0.14599997 4284938339
0.74174702 -0.11948996 0.14399993 4284938339
0.74217135 -0.12175076 0.14199996 4284938339
0.74012429 0.047654413 0.14399993 4284938339
0.73949569 0.046181258 0.14699996 4284938339
0.73907661 0.044671297 0.14899993 4284938339
0.73844796 0.043226887 0.15199995 4284938339
0.73802888 0.041740447 0.15399998 4284938339
0.7376098 0.040264461 0.15599996 4284938339
0.73740029 0.038735993 0.15699995 4284938339
0.73719072 0.037212748 0.15799993 4284938339
0.73698115 0.035694733 0.15899998 4284938339
0.73698115 0.034111168 0.15899998 4284938339
0.73719072 0.032454215 0.15799993 4284938339
0.73719072 0.030868039 0.15799993 4284938339
0.73719072 0.029281862 0.15799993 4284938339
0.73719072 0.027695682 0.15799993 4279880479
0.73719072 0.026109509 0.15799993 4279880479
0.73740029 0.02443688 0.15699995 4279880479
0.73740029 0.022848092 0.15699995 4279880479
0.73740029 0.0212593 0.15699995 4279880479
0.73740029 0.019670509 0.15699995 4279880479
0.73740029 0.018081721 0.15699995 4279880479
0.73740029 0.016492929 0.15699995 4279880479
0.73740029 0.014904138 0.15699995 4279880479
0.73719072 0.01342009 0.15799993 4279880479
0.73719072 0.011833914 0.15799993 4279880479
0.73719072 0.010247737 0.15799993 4279880479
0.73719072 0.0086615607 0.15799993 4279880479
0.73719072 0.0070753843 0.15799993 4279880479
0.73698115 0.0056070238 0.15899998 4279880479
0.73698115 0.0040234625 0.15899998 4279880479
0.73677164 0.0025629327 0.15999997 4279880479
0.73677164 0.00098197907 0.15999997 4279880479
0.73656213 -0.00047071278 0.16099995 4279880479
0.73656213 -0.0020490512 0.16099995 4279880479
0.73635256 -0.0034938976 0.16199994 4279880479
0.73614305 -0.0049335212 0.16299993 4279880479
0.73593348 -0.0063679144 0.16399997 4279880479
0.73572397 -0.0077970847 0.16499996 4279880479
0.7355144 -0.0092210323 0.16599995 4279880479
0.73509532 -0.010493189 0.16799998 4279880479
0.73488581 -0.011904068 0.16899997 4279880479
0.73467624 -0.013309725 0.16999996 4279880479
0.73425716 -0.01455576 0.17199993 4279880479
0.73404765 -0.015948333 0.17299998 4279880479
0.73383808 -0.017335698 0.17399997 4279880479
0.73362857 -0.018717825 0.17499995 4279880479
0.733419 -0.020094737 0.17599994 4279880479
0.733419 -0.021633878 0.17599994 4279880479
0.73320949 -0.023002937 0.17699999 4279880479
0.73299992 -0.024366781 0.17799997 4279880479
0.73299992 -0.025900692 0.17799997 4279880479
0.73299992 -0.02743461 0.17799997 4279880479
0.73299992 -0.02896852 0.17799997 4279880479
0.73299992 -0.030502439 0.17799997 4279880479
0.73299992 -0.032036349 0.17799997 4279880479
0.73279041 -0.033381902 0.17899996 4279880479
0.73279041 -0.034913205 0.17899996 4279880479
0.73299992 -0.036638096 0.17799997 4279880479
0.73299992 -0.038172007 0.17799997 4279880479
0.73299992 -0.039705925 0.17799997 4279880479
0.73299992 -0.041239835 0.17799997 4279880479
0.73299992 -0.042773753 0.17799997 4279880479
0.73320949 -0.044514321 0.17699999 4279880479
0.733419 -0.046260126 0.17599994 4279880479
0.733419 -0.047799267 0.17599994 4279880479
0.73362857 -0.04955291 0.17499995 4279880479
0.73362857 -0.051094659 0.17499995 4279880479
0.73383808 -0.052856125 0.17399997 4279880479
0.73425716 -0.054845162 0.17199993 4279880479
0.73446673 -0.056619711 0.17099994 4279880479
0.73467624 -0.058399476 0.16999996 4279880479
0.73488581 -0.060184471 0.16899997 4279880479
0.73509532 -0.061974682 0.16799998 4279880479
0.73530489 -0.063770138 0.16699994 4279880479
0.7355144 -0.065570809 0.16599995 4279880479
0.73593348 -0.067617334 0.16399997 4279880479
0.73614305 -0.069431089 0.16299993 4279880479
0.73635256 -0.071250044 0.16199994 4279880479
0.73656213 -0.073074244 0.16099995 4279880479
0.73677164 -0.07490366 0.15999997 4279880479
0.73677164 -0.076484598 0.15999997 4279880479
0.73698115 -0.078321852 0.15899998 4279880479
0.73698115 -0.079905428 0.15899998 4279880479
0.73719072 -0.08175052 0.15799993 4279880479
0.73719072 -0.083336703 0.15799993 4279880479
0.73719072 -0.084922872 0.15799993 4279880479
0.73740029 -0.08677844 0.15699995 4279880479
0.7376098 -0.088639192 0.15599996 4279880479
0.73781931 -0.090505205 0.15499997 4279880479
0.73781931 -0.092099212 0.15499997 4279880479
0.73802888 -0.093973063 0.15399998 4279880479
0.73802888 -0.095569678 0.15399998 4279880479
0.73802888 -0.097166322 0.15399998 4284938339
0.73802888 -0.098762937 0.15399998 4284938339
0.73802888 -0.10035958 0.15399998 4284938339
0.73802888 -0.1019562 0.15399998 4284938339
0.73802888 -0.10355284 0.15399998 4284938339
0.73781931 -0.10485134 0.15499997 4284938339
0.73781931 -0.10644536 0.15499997 4284938339
0.73802888 -0.10834271 0.15399998 4284938339
0.73844796 -0.11055128 0.15199995 4284938339
0.73886704 -0.11277025 0.14999998 4284938339
0.73928612 -0.11499972 0.14799994 4284938339
0.7397052 -0.1172396 0.14599997 4284938339
0.74012429 -0.11948996 0.14399993 4284938339
0.74054337 -0.12175076 0.14199996 4284938339
0.73850155 0.047654413 0.14399993 4284938339
0.73788077 0.046181258 0.14699996 4284938339
0.73746693 0.044671297 0.14899993 4284938339
0.73684609 0.043226887 0.15199995 4284938339
0.73622537 0.041798156 0.15499997 4284938339
0.73601842 0.040264461 0.15599996 4284938339
0.73581147 0.038735993 0.15699995 4284938339
0.73539764 0.037278298 0.15899998 4284938339
0.73519069 0.035762895 0.15999997 4284938339
0.73539764 0.034111168 0.15899998 4284938339
0.73539764 0.032527607 0.15899998 4284938339
0.73560452 0.030868039 0.15799993 4284938339
0.73560452 0.029281862 0.15799993 4284938339
0.73560452 0.027695682 0.15799993 4279880479
0.73560452 0.026109509 0.15799993 4279880479
0.73560452 0.024523333 0.15799993 4279880479
0.73581147 0.022848092 0.15699995 4279880479
0.73581147 0.0212593 0.15699995 4279880479
0.73581147 0.019670509 0.15699995 4279880479
0.73560452 0.018178623 0.15799993 4279880479
0.73560452 0.016592447 0.15799993 4279880479
0.73560452 0.015006267 0.15799993 4279880479
0.73560452 0.01342009 0.15799993 4279880479
0.73560452 0.011833914 0.15799993 4279880479
0.73560452 0.010247737 0.15799993 4279880479
0.73539764 0.0087741464 0.15899998 4279880479
0.73539764 0.0071905851 0.15899998 4279880479
0.73539764 0.0056070238 0.15899998 4279880479
0.73519069 0.0041438788 0.15999997 4279880479
0.73519069 0.0025629327 0.15999997 4279880479
0.73519069 0.00098197907 0.15999997 4279880479
0.7349838 -0.00047071278 0.16099995 4279880479
0.7349838 -0.0020490512 0.16099995 4279880479
0.73477685 -0.0034938976 0.16199994 4279880479
0.73456991 -0.0049335212 0.16299993 4279880479
0.73436296 -0.0063679144 0.16399997 4279880479
0.73415607 -0.0077970847 0.16499996 4279880479
0.73394912 -0.0092210323 0.16599995 4279880479
0.73374224 -0.010639749 0.16699994 4279880479
0.73332834 -0.011904068 0.16899997 4279880479
0.73312145 -0.013309725 0.16999996 4279880479
0.73291451 -0.014710151 0.17099994 4279880479
0.73250067 -0.015948333 0.17299998 4279880479
0.73229373 -0.017335698 0.17399997 4279880479
0.73208678 -0.018717825 0.17499995 4279880479
0.73187989 -0.020094737 0.17599994 4279880479
0.73187989 -0.021633878 0.17599994 4279880479
0.73167294 -0.023002937 0.17699999 4279880479
0.731466 -0.024366781 0.17799997 4279880479
0.731466 -0.025900692 0.17799997 4279880479
0.731466 -0.02743461 0.17799997 4279880479
0.731466 -0.02896852 0.17799997 4279880479
0.731466 -0.030502439 0.17799997 4279880479
0.731466 -0.032036349 0.17799997 4279880479
0.731466 -0.033570267 0.17799997 4279880479
0.731466 -0.035104178 0.17799997 4279880479
0.731466 -0.036638096 0.17799997 4279880479
0.731466 -0.038172007 0.17799997 4279880479
0.731466 -0.039705925 0.17799997 4279880479
0.731466 -0.041239835 0.17799997 4279880479
0.731466 -0.042773753 0.17799997 4279880479
0.73167294 -0.044514321 0.17699999 4279880479
0.73187989 -0.046260126 0.17599994 4279880479
0.73187989 -0.047799267 0.17599994 4279880479
0.73208678 -0.04955291 0.17499995 4279880479
0.73208678 -0.051094659 0.17499995 4279880479
0.73229373 -0.052856125 0.17399997 4279880479
0.73250067 -0.054622822 0.17299998 4279880479
0.73270762 -0.056394763 0.17199993 4279880479
0.73291451 -0.05817192 0.17099994 4279880479
0.73312145 -0.059954293 0.16999996 4279880479
0.73353529 -0.061974682 0.16799998 4279880479
0.73374224 -0.063770138 0.16699994 4279880479
0.73394912 -0.065570809 0.16599995 4279880479
0.73415607 -0.06737671 0.16499996 4279880479
